Bathymetry produced by Shom - 540
S186500200-1
long(DD),lat(DD),depth(m - down positive - LAT)
-1.2332167,44.6701667,5.10
-1.2518000,44.5803167,5.40
-1.2194167,44.6727333,2.50
-1.2295500,44.6881333,6.20
-1.2744667,44.5960167,8.40
-1.1724167,44.7494833,-2.20
-1.2709833,44.6182167,3.50
-1.2255000,44.6953500,7.70
-1.2188500,44.6040667,21.40
-1.1835167,44.6754667,5.00
-1.2419667,44.5854000,10.90
-1.2417167,44.6149167,4.50
-1.0660000,44.6817333,0.90
-1.2095333,44.6576833,9.00
-1.2088333,44.6190000,8.80
-1.1396500,44.7019167,-0.80
-1.1727000,44.6742667,0.40
-1.1208333,44.6846833,3.80
-1.1991000,44.6492333,0.20
-1.2311000,44.6869000,4.60
-1.1084833,44.7115833,2.80
-1.2464833,44.5884000,3.40
-1.1510000,44.6860667,6.90
-1.2404500,44.6095000,3.60
-1.2385667,44.6689667,-2.80
-1.2231833,44.5998833,4.70
-1.1899833,44.7115167,0.40
-1.1267833,44.6680667,-2.70
-1.2230667,44.6699833,-1.10
-1.2616333,44.6198167,0.50
-1.1747000,44.6657000,4.40
-1.2213667,44.6529167,9.00
-1.2081500,44.6653333,5.00
-1.1974667,44.6702000,6.10
-1.1503667,44.7400333,-1.00
-1.2059333,44.6435167,5.70
-1.1494167,44.6881000,1.20
-1.1941167,44.6647167,8.10
-1.1481500,44.7042333,-1.50
-1.1397833,44.6684167,1.90
-1.2266167,44.6409500,11.60
-1.2105000,44.6311000,11.30
-1.1233667,44.6857833,2.00
-1.1372333,44.7407000,-2.00
-1.2775667,44.5932833,6.10
-1.0614333,44.6659667,-2.40
-1.1504833,44.7426167,-0.70
-1.1240833,44.7353000,1.40
-1.2114833,44.7102000,5.90
-1.2139000,44.6734667,4.00
-1.1010000,44.6758167,1.70
-1.1532000,44.6921833,2.60
-1.3062000,44.6163000,17.10
-1.1609167,44.6803333,-1.30
-1.0895333,44.7157000,2.20
-1.2741500,44.5717000,7.20
-1.2352333,44.6286333,11.30
-1.2183000,44.7034500,7.40
-1.2341167,44.6683000,6.70
-1.2246000,44.6482333,9.40
-1.1479833,44.6662000,6.10
-1.1199167,44.6611000,-0.50
-1.2102833,44.6577333,8.40
-1.0499500,44.6517333,-3.50
-1.1263000,44.7138833,-2.00
-1.2234167,44.6681000,-0.20
-1.2104667,44.6138167,13.40
-1.2357333,44.6684167,7.70
-1.1864667,44.6696167,9.80
-1.0753333,44.6865833,0.00
-1.1645833,44.6684333,18.50
-1.1650500,44.7349500,-2.50
-1.1653167,44.6691333,8.40
-1.0473500,44.6743000,-0.50
-1.2768500,44.6204500,5.10
-1.0861000,44.6810333,-2.40
-1.2496833,44.5888833,4.60
-1.1059333,44.6638000,1.20
-1.2074500,44.6285333,13.40
-1.1428833,44.6978500,3.30
-1.1304167,44.6954000,2.80
-1.2040667,44.6718500,-1.90
-1.1175167,44.6857833,-1.20
-1.2187000,44.6666667,5.80
-1.2280000,44.6579167,3.70
-1.1139333,44.7248333,4.30
-1.2788667,44.5731333,9.00
-1.0328167,44.6489667,-2.50
-1.2985333,44.6173500,3.10
-1.2239833,44.6056500,7.80
-1.2441000,44.6020333,-0.90
-1.2742500,44.6306000,2.80
-1.2146167,44.7042833,3.80
-1.2919167,44.6347833,6.60
-1.2839167,44.5866167,3.00
-1.0348667,44.6579833,-3.00
-1.2298833,44.6294167,10.20
-1.1754833,44.6710667,8.70
-1.0767000,44.6703833,-1.00
-1.2533000,44.6221000,-0.60
-1.2352500,44.6751500,6.50
-1.1552000,44.7099667,3.40
-1.1898667,44.7194333,4.80
-1.2516667,44.5834833,14.00
-1.2190333,44.6424667,0.00
-1.2227833,44.6767833,5.20
-1.2249000,44.6749167,2.40
-1.1612833,44.7047167,-1.00
-1.2921500,44.6131000,6.70
-1.2560667,44.6197833,0.80
-1.1830333,44.7110500,-2.30
-1.2906833,44.6097833,8.40
-1.0784167,44.6720667,2.10
-1.1920833,44.6790833,-1.00
-1.1059167,44.6737167,-2.80
-1.1539833,44.7041667,4.70
-1.0657833,44.6750833,-0.50
-1.1489333,44.6608167,-0.70
-1.0582333,44.6685500,-2.00
-1.1053000,44.7267667,2.40
-1.1158167,44.7215333,0.00
-1.1836000,44.7240167,-0.60
-1.2589000,44.5971000,2.10
-1.0802000,44.6654667,0.00
-1.1928667,44.6723167,4.20
-1.2279000,44.5998833,4.00
-1.2821333,44.6309667,2.80
-1.1478000,44.6632500,2.60
-1.2144000,44.6172667,6.50
-1.2094000,44.6553167,13.20
-1.1108000,44.6534500,-2.20
-1.2037667,44.6685500,4.20
-1.2671167,44.6311167,1.20
-1.1766000,44.7113000,7.20
-1.2365500,44.5890000,6.20
-1.2336167,44.5891000,5.00
-1.0996833,44.6684167,1.50
-1.1427500,44.7225167,-2.00
-1.2255333,44.6484167,6.90
-1.2829833,44.6302667,3.90
-1.2763833,44.5927833,8.40
-1.2280333,44.6671833,1.30
-1.2384500,44.6069667,5.90
-1.0559500,44.6553333,-0.80
-1.0959833,44.6657833,2.30
-1.1654167,44.7358000,-2.60
-1.2243167,44.6112167,9.30
-1.1728833,44.7116333,6.50
-1.0839167,44.6479000,-2.80
-1.1067333,44.6884000,-1.00
-1.2082500,44.6632333,1.00
-1.2462833,44.6078000,4.50
-1.0917667,44.6894000,-2.50
-1.1272833,44.7099500,-2.10
-1.2402000,44.6038167,4.70
-1.1278333,44.6599333,2.50
-1.1782500,44.7237333,6.60
-1.2005833,44.6522167,0.20
-1.2262000,44.6310333,4.90
-1.2240667,44.6019333,6.00
-1.1699833,44.6732500,5.40
-1.2803833,44.6141000,9.00
-1.1873000,44.6725167,4.60
-1.1717833,44.7091667,-1.20
-1.2701333,44.6365333,5.90
-1.0671000,44.6782333,3.20
-1.1538333,44.7284667,0.80
-1.2323000,44.5820000,-0.90
-1.2813500,44.6195667,6.60
-1.1420000,44.7353333,1.60
-1.2108333,44.6642333,-1.30
-1.1415000,44.6671667,1.80
-1.1423500,44.7088000,1.10
-1.1109833,44.6775500,5.50
-1.2178833,44.6310833,-1.60
-1.2333500,44.6878500,-1.70
-1.1226000,44.6865500,4.00
-1.2728667,44.6156667,4.10
-1.1637667,44.7533167,-1.80
-1.0380000,44.6794333,-4.20
-1.1506333,44.7421000,2.80
-1.2746333,44.5767333,2.40
-1.1071667,44.6747667,2.20
-1.2232167,44.6813833,7.60
-1.0691500,44.6906167,-2.70
-1.1259667,44.6723667,1.60
-1.2009500,44.7224667,-3.00
-1.2807167,44.6325333,4.30
-1.1867667,44.7187833,2.90
-1.2582000,44.5815667,4.50
-1.2476167,44.6037167,1.40
-1.1360500,44.7499333,-1.00
-1.2082833,44.6416167,8.40
-1.1340833,44.6776500,0.60
-1.2889333,44.6191000,5.50
-1.1483333,44.6691500,8.40
-1.2353833,44.6567667,9.20
-1.2094167,44.6249333,1.50
-1.1378667,44.7111333,1.80
-1.2049000,44.7113500,1.50
-1.0913000,44.6824833,3.50
-1.1602833,44.6740833,2.60
-1.2241000,44.6337000,2.90
-1.0818333,44.6593000,-2.60
-1.2252167,44.6725667,1.70
-1.2284333,44.6373000,12.90
-1.3057167,44.6138667,10.60
-1.1295167,44.7021167,-0.20
-1.2220833,44.6842000,1.70
-1.0623333,44.6712667,0.30
-1.2246333,44.6049500,8.40
-1.0978167,44.7250167,-0.20
-1.2066833,44.6436667,7.50
-1.1607500,44.7395333,-2.30
-1.0514333,44.6805667,-2.00
-1.1323333,44.7006333,4.60
-1.1055667,44.6742333,-0.40
-1.0980833,44.6603333,-2.10
-1.1171333,44.6845167,-2.90
-1.1442667,44.7004500,6.40
-1.1435333,44.7178833,-0.40
-1.2294333,44.6641500,5.40
-1.2843167,44.6029000,7.30
-1.2909167,44.6031667,1.30
-1.2341167,44.5935667,1.30
-1.2349500,44.6268500,13.20
-1.2298000,44.6260667,6.30
-1.2006333,44.7173000,0.90
-1.2517833,44.5822500,10.90
-1.0347000,44.6589333,-1.30
-1.1447833,44.6951333,-2.20
-1.0948667,44.6619333,-2.20
-1.2659667,44.5728833,1.00
-1.2165000,44.6007333,11.40
-1.1204333,44.7348167,-2.30
-1.2423000,44.6175500,1.40
-1.1140500,44.6616833,-1.70
-1.2404000,44.5817667,11.50
-1.0904833,44.6913000,-2.00
-1.0837167,44.7015667,-2.00
-1.1571000,44.6669833,16.80
-1.2602333,44.6048000,0.10
-1.2062500,44.6139333,7.90
-1.1275167,44.6914000,5.40
-1.0896000,44.6825667,4.70
-1.1633333,44.6670500,19.10
-1.1374333,44.7390500,-2.50
-1.3124667,44.6149500,17.90
-1.2131167,44.6381500,6.30
-1.0674667,44.6777667,2.60
-1.0922167,44.7201667,-2.10
-1.3027667,44.6128000,8.50
-1.1416167,44.7349667,1.40
-1.2104833,44.6659333,0.40
-1.2489333,44.6076000,5.60
-1.2666500,44.6128000,3.90
-1.2075500,44.6508333,-1.10
-1.2244667,44.6460667,11.00
-1.2345500,44.5857000,13.40
-1.2980000,44.6195833,3.20
-1.2806500,44.5772500,6.40
-1.0959500,44.6635667,-0.20
-1.2065000,44.6628833,3.30
-1.2049500,44.6503000,1.40
-1.2033333,44.6716667,-0.30
-1.1591167,44.7042833,-0.80
-1.1875333,44.6686167,10.40
-1.1634167,44.6683167,19.60
-1.2019000,44.6707333,0.90
-1.0579167,44.6821000,-0.60
-1.1664333,44.6748000,1.40
-1.2922833,44.5931500,4.60
-1.2702667,44.5698500,6.20
-1.2161167,44.6286500,-0.50
-1.1676333,44.7136333,4.60
-1.0985167,44.7124000,-1.00
-1.2322333,44.5871667,12.20
-1.1336667,44.6961333,3.80
-1.0881667,44.7038500,-1.70
-1.1403833,44.6565333,0.80
-1.1240667,44.7345833,-1.10
-1.2468500,44.5941167,0.40
-1.2222500,44.6928333,5.30
-1.1652000,44.6678667,17.40
-1.0802000,44.6734333,0.10
-1.1687500,44.6671667,11.80
-1.1920500,44.6717667,6.30
-1.2678500,44.5744167,2.60
-1.0561000,44.6547167,-2.20
-1.2201833,44.6544167,7.60
-1.1511667,44.6809000,4.10
-1.0750500,44.6551333,-2.50
-1.1179333,44.7243000,-1.90
-1.2368833,44.6718333,5.70
-1.1890000,44.7312167,-1.80
-1.2193833,44.6956333,4.70
-1.1443000,44.6877500,-0.90
-1.1906667,44.7209000,5.20
-1.1528167,44.6650500,4.30
-1.1745000,44.7444000,-1.10
-1.2764833,44.5940167,9.20
-1.2222833,44.7042333,2.20
-1.0828333,44.6778333,2.60
-1.1382167,44.6753833,6.40
-1.1261500,44.6786000,5.00
-1.2732667,44.5707167,5.90
-1.2288833,44.6924833,3.40
-1.2139833,44.6401000,3.40
-1.1782667,44.7420833,-3.10
-1.2360167,44.6790500,-0.90
-1.0867667,44.6853167,-1.50
-1.1713667,44.6738000,2.60
-1.2345167,44.6214000,12.40
-1.1266500,44.7394000,-2.30
-1.2175667,44.6916500,-1.50
-1.2155500,44.6614333,-1.20
-1.1965000,44.6710167,3.00
-1.0815833,44.6497500,-2.60
-1.2884500,44.6058167,2.20
-1.2613667,44.5872833,13.70
-1.2865500,44.6065833,7.90
-1.0688667,44.6658667,-2.10
-1.1868167,44.7194167,2.50
-1.2099500,44.6253000,2.60
-1.0869833,44.6472667,-2.80
-1.2447500,44.5901500,-0.50
-1.1639833,44.6691667,10.20
-1.1336167,44.6746500,9.90
-1.0664000,44.6660667,-1.30
-1.1179333,44.6892500,-2.40
-1.2969167,44.6221833,7.20
-1.1595667,44.7058333,5.60
-1.1287500,44.6537667,-2.00
-1.1077500,44.6708667,1.20
-1.2684000,44.5717667,5.20
-1.1724667,44.6668667,13.80
-1.2224000,44.5986833,7.10
-1.1775333,44.7220500,8.20
-1.0363167,44.6498167,-3.20
-1.1410333,44.6975000,1.70
-1.2931333,44.6122500,7.20
-1.2329000,44.5812167,-0.90
-1.1961000,44.6771667,5.30
-1.1408333,44.6995333,6.00
-1.0769833,44.6861500,-1.60
-1.2103333,44.6534333,8.60
-1.1939500,44.7114500,2.40
-1.2302667,44.6413000,13.80
-1.1385000,44.6545500,-4.00
-1.1654333,44.7105333,2.70
-1.1429167,44.6574000,-2.00
-1.2251500,44.5902000,16.70
-1.2177500,44.7079500,5.20
-1.1567833,44.7235167,-2.60
-1.2387333,44.6211000,8.20
-1.1005833,44.6786000,8.20
-1.0859667,44.6980833,3.30
-1.1463833,44.7350833,0.00
-1.2244167,44.6025667,9.80
-1.0667167,44.6926333,-3.10
-1.2672333,44.6265167,4.20
-1.1831333,44.6637167,-1.80
-1.2005167,44.6584333,5.70
-1.2699333,44.6334167,2.40
-1.2575333,44.5917000,4.70
-1.1500667,44.6662500,8.10
-1.3107833,44.6126667,16.90
-1.1666333,44.7510167,-0.90
-1.1438333,44.7341167,-1.80
-1.2124000,44.6153333,11.00
-1.2357833,44.6439333,4.70
-1.2835167,44.6119833,9.20
-1.2278667,44.6540833,2.90
-1.2148333,44.6055000,22.00
-1.2020167,44.6587500,9.50
-1.1646167,44.7058333,-1.50
-1.0326333,44.6634833,-2.30
-1.1250333,44.7313500,-2.50
-1.2148333,44.6421333,2.20
-1.1231667,44.6673833,-1.50
-1.2005333,44.7220000,-1.80
-1.2234333,44.6879667,5.40
-1.2307667,44.6645500,8.40
-1.0720667,44.7003667,-0.30
-1.2162833,44.6214833,3.00
-1.1344500,44.6962667,3.00
-1.0575833,44.6753000,-0.20
-1.2112500,44.6092333,16.70
-1.2229167,44.5993167,6.10
-1.2105500,44.7086333,3.60
-1.2618333,44.5844833,10.40
-1.1755667,44.7575000,-2.30
-1.0781167,44.6706000,-0.50
-1.2179667,44.6664167,3.60
-1.2627833,44.6053167,1.20
-1.1982667,44.6561000,1.40
-1.2044000,44.6486167,3.10
-1.2647500,44.5881000,9.50
-1.1195333,44.7171333,2.30
-1.0996500,44.6777667,7.10
-1.2937167,44.5880000,7.70
-1.1291000,44.6725333,4.00
-1.1342667,44.7041333,2.90
-1.2413000,44.6382333,-2.00
-1.0589500,44.6604167,-2.10
-1.2525833,44.6196833,0.60
-1.2374667,44.6269833,5.30
-1.0619500,44.6881667,-2.90
-1.2752500,44.6374000,3.90
-1.2160500,44.6402833,1.30
-1.2199000,44.6178667,5.60
-1.2722000,44.5851500,6.00
-1.1255000,44.7164833,4.00
-1.1185000,44.6841667,1.00
-1.1786667,44.7149000,-1.20
-1.2653000,44.6120500,1.00
-1.2349333,44.6380667,8.60
-1.1976500,44.7117833,2.80
-1.2091667,44.6531833,7.50
-1.0947667,44.6667000,-0.30
-1.2127000,44.6184667,7.90
-1.1638667,44.6742333,4.80
-1.1595167,44.7348000,3.40
-1.1404333,44.6770000,-2.00
-1.1505000,44.6844167,6.90
-1.2192000,44.6234500,1.80
-1.0809000,44.6770000,-0.70
-1.1997500,44.6669833,5.60
-1.2353833,44.6553167,6.90
-1.1136000,44.7226333,5.80
-1.1107833,44.7116167,4.90
-1.1524833,44.6841333,3.00
-1.1948167,44.6734333,0.20
-1.2098667,44.6101167,13.10
-1.1463000,44.7293167,0.00
-1.1703667,44.7258833,8.00
-1.2345500,44.6351167,11.20
-1.2230000,44.6548167,-0.30
-1.1542167,44.6869000,9.50
-1.1855667,44.6774833,2.00
-1.0960333,44.6627667,-2.20
-1.3016333,44.6102167,4.00
-1.1084333,44.7175000,-2.40
-1.1503333,44.6944833,0.90
-1.2263833,44.6774500,2.50
-1.2825500,44.5998167,5.70
-1.2298500,44.6932000,2.80
-1.1365500,44.6609500,2.10
-1.1434667,44.7360167,3.50
-1.1392667,44.7041000,0.30
-1.2010333,44.6704167,2.50
-1.2210500,44.6969333,6.40
-1.1778833,44.7136667,3.90
-1.1528667,44.7358833,-2.40
-1.2965667,44.6111000,5.90
-1.2303333,44.6560000,3.80
-1.2215833,44.6253167,3.10
-1.1168000,44.6644167,-1.60
-1.2469500,44.5725167,3.40
-1.1745167,44.6741167,1.00
-1.1679833,44.7142333,0.80
-1.1625500,44.6662000,7.30
-1.2562667,44.5938667,-0.40
-1.2976833,44.5960667,9.60
-1.1763333,44.7131167,5.30
-1.0663167,44.6788167,2.20
-1.2458833,44.5820833,11.10
-1.1600833,44.6664500,11.30
-1.1548000,44.6893667,8.60
-1.2009500,44.7181000,-1.30
-1.1625000,44.6769667,-1.10
-1.1232000,44.6821500,1.00
-1.0742667,44.7003333,-2.50
-1.1178500,44.6901667,-2.20
-1.2714500,44.5991000,8.60
-1.2651833,44.5801667,0.00
-1.1825167,44.7223333,4.50
-1.0982500,44.6851833,0.00
-1.1396667,44.6739833,8.00
-1.2245667,44.6775000,1.30
-1.2327500,44.6876500,2.60
-1.2365833,44.6533667,2.40
-1.2074333,44.6267667,14.50
-1.1523500,44.6919500,0.00
-1.1883000,44.6667667,6.80
-1.1517667,44.6837667,5.50
-1.2555167,44.5907167,5.40
-1.2174167,44.6972000,3.70
-1.1543667,44.6873667,6.00
-1.2053000,44.7164167,4.30
-1.1487167,44.7493000,0.50
-1.2063833,44.6549000,7.20
-1.2201000,44.6910833,-1.30
-1.1957667,44.6633333,7.00
-1.1798333,44.7106500,-1.10
-1.2800833,44.6081833,9.40
-1.2820833,44.6167167,10.20
-1.1175667,44.6872167,1.70
-1.1794667,44.7548500,-2.30
-1.1121167,44.7183500,-1.00
-1.2567833,44.6222000,-1.40
-1.2357667,44.6079000,-0.90
-1.2691000,44.6393333,3.90
-1.0883000,44.6618500,1.50
-1.2719000,44.6182833,3.00
-1.2341167,44.6268833,11.30
-1.1587833,44.6975667,-2.50
-1.1512333,44.6643333,0.80
-1.1303000,44.7110667,5.10
-1.2843000,44.6298667,5.80
-1.2183667,44.7087333,1.30
-1.2646833,44.5993667,1.70
-1.2887167,44.6011833,3.70
-1.1515667,44.7023167,3.10
-1.2178333,44.6474667,3.80
-1.0593167,44.6855667,-2.90
-1.1561000,44.6880000,-1.40
-1.2192000,44.6046167,13.60
-1.1605667,44.7363000,0.40
-1.2530500,44.6158833,-1.00
-1.2188000,44.7092000,-1.00
-1.2759667,44.6237000,4.60
-1.1205000,44.7201667,-2.50
-1.2711333,44.5659167,6.50
-1.2976833,44.5917667,13.00
-1.2229000,44.6848167,4.20
-1.2611667,44.6207167,2.40
-1.2405667,44.5904333,2.70
-1.2159333,44.7057333,5.10
-1.1938833,44.6791333,-1.50
-1.1787000,44.6661500,10.60
-1.2241500,44.5935000,23.20
-1.2560667,44.5864500,14.90
-1.1627500,44.6700000,9.30
-1.2512833,44.5888167,7.60
-1.2023833,44.6455167,2.30
-1.1008667,44.7259333,-2.20
-1.0872667,44.6700833,-1.10
-1.2403667,44.6000167,6.20
-1.2288167,44.6840167,2.60
-1.2487833,44.5923500,1.90
-1.1779167,44.6653500,0.00
-1.1339667,44.7063667,2.90
-1.1549500,44.7109000,-1.80
-1.1527167,44.6640500,0.60
-1.3027667,44.6098333,6.50
-1.2373167,44.6189667,7.60
-1.1781167,44.7537333,-0.50
-1.2754000,44.5920167,7.20
-1.3053000,44.6076500,14.00
-1.2209667,44.7055833,4.40
-1.2901833,44.6075167,2.00
-1.2120833,44.6580500,11.30
-1.2659833,44.6027167,2.40
-1.2181500,44.6542167,10.40
-1.2394000,44.5912833,7.70
-1.2413167,44.5964000,-1.00
-1.2712167,44.6189833,2.70
-1.2284000,44.5921500,3.90
-1.0482333,44.6539000,-2.50
-1.0982667,44.7109167,-2.00
-1.2831000,44.6014333,8.10
-1.2347833,44.6103333,1.50
-1.1801000,44.7115833,8.40
-1.1511833,44.7434500,2.00
-1.0896333,44.6676500,-2.40
-1.0925000,44.6561500,-2.40
-1.2010667,44.6610667,8.80
-1.2207333,44.6914167,0.90
-1.1753667,44.6741500,2.00
-1.2898167,44.5926667,4.20
-1.1518000,44.6950333,5.40
-1.2641167,44.6145000,2.30
-1.2123333,44.6265667,0.10
-1.2364167,44.6048000,-0.50
-1.1555833,44.7178333,-2.50
-1.0899167,44.7148333,-2.00
-1.2852000,44.6062167,5.70
-1.2284500,44.6357167,12.50
-1.2111167,44.6512833,6.60
-1.1847667,44.6701333,11.50
-1.2155500,44.6384167,0.60
-1.2232333,44.6407167,2.10
-1.3012000,44.6124000,5.40
-1.1270833,44.6962667,-2.50
-1.1561167,44.6896833,-0.70
-1.1924833,44.6620000,5.00
-1.2250500,44.5971000,5.80
-1.2247833,44.7034000,-0.90
-1.2704333,44.6372333,6.50
-1.2885167,44.6331833,4.70
-1.1274167,44.6622000,5.50
-1.1767833,44.6657500,7.70
-1.2379500,44.5779000,-1.70
-1.3030500,44.6051333,11.90
-1.1550000,44.6728167,5.10
-1.2247667,44.6605833,5.80
-1.1794000,44.7413000,-3.10
-1.1553500,44.7373667,1.00
-1.2353167,44.6228833,11.90
-1.1592833,44.6701000,15.60
-1.2303000,44.6312000,11.80
-1.3156000,44.6076167,19.70
-1.1186000,44.6820667,0.10
-1.1148167,44.7256667,3.40
-1.2297167,44.5997000,-0.50
-1.2881000,44.5754667,10.50
-1.2261167,44.6667833,-0.50
-1.2480667,44.5843333,14.20
-1.0670500,44.6480833,-3.80
-1.1400833,44.6672000,-0.60
-1.2222667,44.6531333,5.00
-1.1301833,44.7241167,-2.40
-1.2143333,44.7001833,3.70
-1.2281500,44.6324833,7.40
-1.1719500,44.7236500,7.20
-1.2394000,44.6101000,7.00
-1.1241500,44.7217833,-1.60
-1.1298167,44.7128167,6.10
-1.2240000,44.5970500,8.20
-1.2318833,44.6269833,14.60
-1.2114833,44.6498833,1.60
-1.2884500,44.6358000,7.10
-1.1315000,44.7035333,5.80
-1.1988000,44.6781167,4.00
-1.2671000,44.5677667,3.70
-1.0480167,44.6660333,-2.40
-1.1522000,44.6780167,1.40
-1.1509667,44.6834667,6.00
-1.2384500,44.6052667,0.70
-1.2260833,44.6635333,0.00
-1.1686333,44.6658333,2.60
-1.2375000,44.6742667,-2.30
-1.2330833,44.6564667,18.00
-1.1514167,44.7454833,-0.70
-1.2354000,44.5993167,0.50
-1.1361500,44.7205667,-2.80
-1.2210333,44.6598167,6.50
-1.1940667,44.6588500,0.00
-1.2142667,44.6118667,11.20
-1.2874833,44.6026667,1.40
-1.2256667,44.6372167,5.50
-1.2403667,44.5967333,-1.40
-1.2263667,44.6393667,9.90
-1.2945667,44.5872000,10.70
-1.2254667,44.5991500,5.50
-1.2254500,44.6840167,6.50
-1.2402333,44.5807500,4.50
-1.2428333,44.5902000,-0.70
-1.1253167,44.6785500,4.00
-1.1508500,44.6673333,10.40
-1.0973167,44.6900000,1.10
-1.2201500,44.5996500,22.70
-1.1238167,44.6667333,3.00
-1.0857500,44.6784333,3.00
-1.1277833,44.7086833,-0.20
-1.2557833,44.5881333,14.70
-1.2355167,44.6475833,9.80
-1.1257500,44.6610167,4.70
-1.2264167,44.7011000,1.80
-1.1196667,44.6742500,6.10
-1.1229167,44.7259167,-1.10
-1.2450167,44.6069333,2.50
-1.1670333,44.6709167,3.60
-1.1513167,44.6885333,4.10
-1.1381667,44.7103333,1.50
-1.1589167,44.7377833,0.60
-1.2281833,44.6341333,9.80
-1.1264667,44.6748333,8.50
-1.0677667,44.6773500,-2.10
-1.2155833,44.7105500,1.60
-1.1516000,44.6769667,6.00
-1.2622167,44.5821833,5.40
-1.1232500,44.7252167,1.50
-1.1700333,44.6739333,4.70
-1.2178667,44.6564833,4.30
-1.2095333,44.7028833,1.80
-1.0394000,44.6778833,-3.20
-1.2564667,44.6091833,2.80
-1.2254000,44.6324833,4.70
-1.1725500,44.6698167,14.30
-1.2599667,44.6056333,1.10
-1.1704500,44.6662500,9.00
-1.2070167,44.6698333,1.40
-1.1952333,44.7135000,9.60
-1.0755833,44.6999500,-1.70
-1.1505000,44.7436333,2.00
-1.1552667,44.6703333,11.40
-1.2265167,44.6755333,-1.00
-1.1190667,44.7058667,-2.50
-1.2367667,44.6633000,1.20
-1.0403333,44.6766667,-2.80
-1.1976500,44.7173333,4.00
-1.3006167,44.6068333,5.80
-1.2099333,44.6133333,12.90
-1.1253000,44.7175500,2.10
-1.2655500,44.5850167,7.50
-1.1521333,44.7279000,4.40
-1.2475167,44.6087667,5.90
-1.1895000,44.6698833,9.40
-1.1147833,44.7107167,6.20
-1.2669000,44.5685000,4.10
-1.1920500,44.7087500,-2.10
-1.1934000,44.6585333,-1.90
-1.2272500,44.6263500,2.10
-1.0898833,44.7152167,1.50
-1.0961667,44.6622833,-2.50
-1.2219833,44.6781833,6.00
-1.2224333,44.6808333,6.10
-1.1009667,44.6678000,2.80
-1.1866667,44.7126000,10.20
-1.2144333,44.6382833,1.70
-1.1712333,44.6643833,-2.00
-1.1320667,44.7103000,1.40
-1.2079167,44.6115167,9.30
-1.1328667,44.6699167,1.30
-1.2277833,44.6025333,2.50
-1.2947833,44.5952167,2.60
-1.1064167,44.7225000,4.00
-1.2806167,44.6205833,7.60
-1.0894667,44.7127000,3.40
-1.1083833,44.6622500,0.40
-1.1342333,44.6646167,0.50
-1.2034833,44.7091833,3.60
-1.1506833,44.7385000,-1.60
-1.2278000,44.6639167,3.20
-1.1545500,44.6953833,2.30
-1.2229667,44.6532000,2.30
-1.1453833,44.6590000,-0.30
-1.2259833,44.6284833,2.90
-1.2892333,44.6149500,4.10
-1.1557333,44.7269167,0.00
-1.1258500,44.6731000,5.60
-1.2043333,44.6279333,-2.00
-1.2352333,44.5825500,9.60
-1.0417167,44.6799000,-3.80
-1.1551500,44.6926833,6.30
-1.1249000,44.6874333,3.40
-1.2163000,44.6615667,-1.20
-1.2188333,44.6476667,5.60
-1.2466500,44.6122167,0.60
-1.2034833,44.6432000,2.50
-1.2283167,44.6976000,-2.00
-1.0846167,44.6963333,-2.00
-1.1553333,44.6850667,-0.90
-1.2328833,44.6625333,10.70
-1.1603000,44.6763167,0.00
-1.2664667,44.6014333,2.80
-1.2719500,44.6405167,5.60
-1.2608167,44.5960500,-0.40
-1.1640167,44.7110500,0.20
-1.1037000,44.6689667,3.00
-1.2816333,44.5951667,6.00
-1.2570000,44.5798167,1.00
-1.0690167,44.6900667,-1.00
-1.1692833,44.6724667,7.10
-1.2254167,44.6244667,1.00
-1.2655167,44.5970333,2.20
-1.0926167,44.7192333,1.30
-1.2320833,44.6895000,-1.00
-1.2895333,44.6068333,1.10
-1.1578333,44.7110000,2.60
-1.3026000,44.6322167,16.60
-1.0986500,44.7049833,-2.50
-1.0906833,44.7104833,-2.00
-1.2163167,44.6062667,21.50
-1.2055833,44.6757333,3.50
-1.1795833,44.7100667,-1.40
-1.3079833,44.6319000,17.60
-1.1968333,44.6776833,3.40
-1.2954000,44.5860500,13.30
-1.2239667,44.6631167,1.00
-1.2367000,44.6477667,1.50
-1.1815667,44.7241000,0.00
-1.2439000,44.5824833,15.40
-1.2599500,44.6131500,1.80
-1.1687833,44.6691167,16.90
-1.1493833,44.6851833,4.40
-1.0684833,44.6670333,0.20
-1.2416167,44.6057500,5.90
-1.2173833,44.6616333,-1.90
-1.2050667,44.6434167,5.90
-1.1606167,44.7329833,0.50
-1.1032167,44.6830500,1.10
-1.2652333,44.5667333,0.50
-1.2349333,44.6222167,12.80
-1.0963167,44.6768167,2.20
-1.1801000,44.7110667,0.00
-1.2169000,44.7022167,4.80
-1.2624333,44.5933500,8.60
-1.1984333,44.7183833,0.00
-1.1989500,44.6667000,9.20
-1.1331500,44.6977000,2.00
-1.1509667,44.6619333,-1.60
-1.1382167,44.6809500,-0.90
-1.2822500,44.6220000,7.50
-1.0857167,44.7118833,-2.60
-1.2093500,44.6129167,14.40
-1.2385833,44.6231167,4.10
-1.2864500,44.6118000,5.30
-1.2512333,44.6058333,3.90
-1.2003333,44.7169333,8.00
-1.2343000,44.6474167,12.30
-1.2186833,44.7039000,8.60
-1.2008000,44.7106500,1.70
-1.2985500,44.6294167,13.90
-1.2123667,44.6759667,2.50
-1.1956167,44.6593167,7.70
-1.2953667,44.5892500,11.50
-1.0725167,44.6863000,1.70
-1.1928000,44.7170833,7.00
-1.1250500,44.6809167,-2.40
-1.2106167,44.6713500,-2.50
-1.2362333,44.6068000,0.00
-1.1767333,44.6744667,3.20
-1.2288500,44.6581167,8.30
-1.2081500,44.6359667,14.10
-1.0844667,44.7116333,-2.30
-1.2159000,44.6209667,3.80
-1.0961000,44.7178167,-1.40
-1.3118333,44.6098500,16.80
-1.1715000,44.6649333,-1.30
-1.2580000,44.5824000,8.00
-1.1359833,44.6614500,4.00
-1.0962833,44.6921333,3.90
-1.0949000,44.6948500,3.00
-1.2749500,44.6352500,6.60
-1.2306667,44.6525333,13.00
-1.1907500,44.6757833,2.00
-1.3073000,44.6116833,15.90
-1.2862000,44.6155833,2.70
-1.0327333,44.6479500,-2.30
-1.2178667,44.6618667,-1.40
-1.1961500,44.7235500,-2.60
-1.2026500,44.6788167,2.10
-1.1617167,44.7233167,-0.70
-1.2208833,44.5983500,16.00
-1.1745833,44.7092833,-1.40
-1.0638500,44.6525167,-1.30
-1.2269667,44.6519667,8.10
-1.1579333,44.6731833,1.60
-1.1214500,44.6778333,7.90
-1.2278333,44.6014833,3.00
-1.2049167,44.6642333,7.70
-1.1512333,44.7013333,1.00
-1.1715167,44.6751000,-1.30
-1.1829500,44.6682333,12.60
-1.1955667,44.7140833,11.00
-1.2455167,44.5977167,-1.00
-1.1253500,44.6803000,-0.40
-1.2715000,44.6135333,5.00
-1.1166667,44.7068667,0.00
-1.2410000,44.5798000,-0.60
-1.3014167,44.6155333,7.10
-1.0525167,44.6689500,0.00
-1.2939333,44.5776833,12.90
-1.2234833,44.6108000,10.60
-1.1647500,44.6661667,6.40
-1.0450500,44.6813167,-3.70
-1.2348333,44.6712167,9.00
-1.0967500,44.6976167,-1.80
-1.0888667,44.7026000,-2.60
-1.1353167,44.7534000,-3.10
-1.2261667,44.6609000,0.00
-1.1257333,44.6941500,-0.10
-1.2183167,44.6768000,-2.60
-1.2252167,44.6902000,9.10
-1.1476500,44.7493167,2.00
-1.2024667,44.6566667,4.00
-1.0910667,44.6991500,1.00
-1.2312333,44.6925667,0.20
-1.1476833,44.6628000,-0.80
-1.2305000,44.6469167,14.50
-1.1744000,44.7145333,3.50
-1.0997500,44.6804667,6.30
-1.1435333,44.7175833,0.40
-1.3069833,44.6148000,15.50
-1.1610500,44.7112667,5.20
-1.1694333,44.7238333,6.70
-1.2716500,44.5872000,6.50
-1.2709333,44.5892500,6.60
-1.2322667,44.5850333,13.20
-1.2360167,44.6376667,11.30
-1.2058500,44.6280667,13.00
-1.2813000,44.6300000,3.70
-1.2197333,44.5936333,9.30
-1.2346000,44.6811000,0.90
-1.2787500,44.6187167,5.90
-1.2236667,44.6481167,10.90
-1.2081167,44.6396500,10.70
-1.1946333,44.6573167,-0.80
-1.2062667,44.6414333,7.60
-1.2918833,44.5768833,11.90
-1.2624167,44.5812000,2.40
-1.1942000,44.6609000,4.10
-1.1954167,44.6739333,-0.40
-1.2372833,44.5869667,8.50
-1.2643167,44.5637833,2.20
-1.1966167,44.7157167,10.50
-1.2513333,44.6113500,-0.60
-1.2523667,44.5667667,1.30
-1.1519833,44.7450667,-2.00
-1.1683667,44.6907000,-3.90
-1.1735167,44.6669000,15.60
-1.2093333,44.6309167,14.00
-1.2307167,44.6583833,16.00
-1.2207000,44.5953667,21.20
-1.2288000,44.6466333,14.00
-1.2263333,44.6228000,5.20
-1.2364667,44.6388167,1.30
-1.2952500,44.6341833,11.10
-1.1047167,44.6912667,0.00
-1.1800000,44.6753500,3.00
-1.1288833,44.6762000,10.40
-1.2103500,44.6511500,3.90
-1.2238833,44.6894667,6.00
-1.1708500,44.7268000,3.00
-1.2349500,44.6107167,2.50
-1.1976667,44.7123667,2.40
-1.1402167,44.6615500,3.60
-1.1770833,44.7121333,9.70
-1.2113500,44.6208333,2.90
-1.2367000,44.6741000,4.80
-1.1484667,44.7324500,-2.50
-1.0965167,44.7165833,-2.60
-1.1682333,44.7281000,4.50
-1.2286000,44.6615000,7.40
-1.2971667,44.5968000,8.70
-1.2762500,44.6110167,6.20
-1.1715833,44.6687833,17.80
-1.2391000,44.6443000,-1.60
-1.0746167,44.6580667,0.40
-1.1608333,44.6654500,1.60
-1.0918667,44.6976833,2.50
-1.2904167,44.6178167,2.50
-1.0672500,44.6672833,2.00
-1.2170167,44.6001667,22.80
-1.0676000,44.6475333,-3.40
-1.2134000,44.6344500,3.80
-1.2668000,44.5999000,2.80
-1.0846333,44.7093167,-1.90
-1.2494333,44.6185500,-0.40
-1.0713167,44.6507000,-2.00
-1.2641333,44.6288333,0.00
-1.0857000,44.6985167,-0.20
-1.1409333,44.6899833,-0.90
-1.1757333,44.6680000,15.80
-1.1676333,44.6675333,15.20
-1.2466333,44.6141833,2.90
-1.1317833,44.7436500,-1.80
-1.2414667,44.6203333,-1.60
-1.2106333,44.6281167,9.00
-1.2077167,44.6438167,5.50
-1.2207500,44.6625333,6.60
-1.2229000,44.7046500,0.00
-1.1227000,44.6647000,-0.60
-1.1845667,44.6719500,5.60
-1.1827167,44.6812167,0.00
-1.2653833,44.6115500,0.70
-1.2266167,44.6964833,8.50
-1.1427167,44.7066500,-1.20
-1.1812333,44.7134000,6.80
-1.0452167,44.6621833,-0.40
-1.2379333,44.5816833,7.80
-1.1733000,44.6679000,18.70
-1.1670500,44.7247667,0.00
-1.2262833,44.6125667,10.80
-1.1620667,44.7444833,-0.20
-1.2339000,44.6109167,1.10
-1.2718167,44.6220667,2.20
-1.1293000,44.7025167,2.80
-1.2321667,44.5879167,8.70
-1.1403500,44.6676667,1.40
-1.2083167,44.6307000,15.10
-1.1258500,44.6738500,6.60
-1.2122000,44.6344000,9.70
-1.2684500,44.5691833,5.20
-1.1532167,44.6704167,12.00
-1.1657167,44.6685667,13.70
-1.2596333,44.5914667,10.50
-1.2138167,44.6419833,3.90
-1.1356000,44.7508833,-1.80
-1.2313500,44.6892333,1.20
-1.2313000,44.5979333,0.00
-1.1511333,44.6854500,6.70
-1.2319333,44.6436000,9.90
-1.2931000,44.5888833,3.70
-1.1237667,44.7229500,1.30
-1.0774167,44.6737667,-1.50
-1.1521167,44.6963167,4.80
-1.0986333,44.6762500,-0.80
-1.2098167,44.6074167,5.30
-1.0585500,44.6612333,-0.10
-1.1432333,44.6616833,0.80
-1.2600500,44.5931500,7.30
-1.2425667,44.5886167,0.90
-1.0851167,44.6993833,0.50
-1.2542667,44.6059333,-1.40
-1.2909167,44.6324500,5.30
-1.1643000,44.6669500,21.20
-1.2731000,44.6381833,6.30
-1.2118333,44.6083333,17.40
-1.0818833,44.6861000,-0.30
-1.1922667,44.6640333,10.50
-1.0857167,44.6845833,3.80
-1.1235500,44.6863833,2.00
-1.2068833,44.7032000,-1.30
-1.1166333,44.7256667,1.20
-1.1378000,44.7120667,1.30
-1.2397167,44.5767667,-2.70
-1.1525500,44.7071667,1.20
-1.1996333,44.6582833,6.40
-1.2289167,44.6171000,7.90
-1.1911000,44.7215500,6.00
-1.2759833,44.6338167,2.70
-1.1390833,44.6766167,1.70
-1.1314667,44.7116333,0.00
-1.1613333,44.6929667,0.10
-1.1426000,44.7056833,4.90
-1.0929667,44.7237667,-2.70
-1.2340667,44.6588167,14.00
-1.1368167,44.6740167,9.00
-1.2260833,44.6842333,7.00
-1.3107500,44.6212000,17.80
-1.2365333,44.6349500,3.60
-1.1491167,44.6762000,3.20
-1.2480667,44.5791333,0.00
-1.2761833,44.5902167,5.20
-1.2370667,44.5898500,3.60
-1.2242833,44.6319667,4.30
-1.3068667,44.6064167,16.40
-1.1579833,44.6709667,13.80
-1.1484667,44.7508833,-2.00
-1.2730667,44.6010000,3.70
-1.2370667,44.6713500,6.50
-1.1867667,44.7081667,-3.30
-1.2239667,44.6883500,7.40
-1.1800167,44.6655833,8.90
-1.1970333,44.7106000,2.00
-1.1456333,44.6750000,0.20
-1.2148833,44.6502333,10.20
-1.1061000,44.6776167,7.00
-1.1533000,44.6645000,2.80
-1.1126000,44.7168667,1.60
-1.2298500,44.6131333,3.30
-1.0925167,44.7196500,2.30
-1.2727833,44.6211500,3.40
-1.2227667,44.6170000,4.60
-1.2095833,44.6095000,10.10
-1.2911667,44.6027333,0.70
-1.1296500,44.6613167,5.60
-1.1409000,44.7326500,-2.50
-1.0703500,44.6684000,2.00
-1.2169833,44.6022667,23.40
-1.2356167,44.6735333,10.80
-1.3087333,44.6286833,17.40
-1.2155333,44.6020000,11.90
-1.0632333,44.6774833,-2.20
-1.2095167,44.6164500,10.10
-1.0722833,44.6871333,2.90
-1.0957500,44.6945667,4.50
-1.2403333,44.5830667,16.00
-1.2110333,44.6292167,7.00
-1.2189833,44.6686333,4.90
-1.1521333,44.7518167,2.10
-1.2714000,44.5999000,10.00
-1.0458500,44.6803500,-1.60
-1.1496667,44.7014167,2.60
-1.0676667,44.6801000,-0.70
-1.2094667,44.6341333,13.00
-1.2836000,44.5752833,9.40
-1.2583333,44.5807000,3.40
-1.1605333,44.7349833,4.70
-1.2686833,44.6312333,3.00
-1.2360000,44.6754000,2.50
-1.2443000,44.5869500,5.70
-1.0387833,44.6669500,-1.30
-1.2406833,44.6200333,2.60
-1.0731000,44.6985833,-1.10
-1.2124667,44.6500167,3.00
-1.0731333,44.7003000,0.90
-1.1198500,44.6738000,5.00
-1.2265833,44.6372500,8.50
-1.2295500,44.6523000,11.30
-1.1297167,44.7107667,5.00
-1.2360667,44.6496667,3.10
-1.0947333,44.6959500,4.70
-1.1799667,44.6650667,2.40
-1.1630000,44.6666833,13.50
-1.3145167,44.6114833,18.60
-1.1149000,44.6529833,-1.90
-1.2155000,44.6976833,-0.80
-1.1558833,44.6739500,0.60
-1.1634833,44.7297500,5.40
-1.2199833,44.5991333,17.70
-1.2751500,44.5753333,5.10
-1.3004333,44.5995000,10.70
-1.2110000,44.6379333,7.10
-1.1492500,44.6964000,5.00
-1.0909000,44.7125500,0.60
-1.2987167,44.5819833,14.90
-1.1133000,44.7387667,-2.80
-1.2241333,44.6331167,2.70
-1.2372833,44.6534333,-1.30
-1.2667500,44.5930833,14.90
-1.2677833,44.5766333,-0.50
-1.3094167,44.6268167,18.40
-1.0796333,44.6856167,1.60
-1.2297333,44.6434500,11.60
-1.1280167,44.6594000,-0.50
-1.2206333,44.6455167,6.10
-1.3017000,44.6059000,7.80
-1.2346000,44.6263667,12.30
-1.1339333,44.6474500,-3.30
-1.1331667,44.7366333,2.00
-1.1454667,44.6977000,4.80
-1.2615500,44.6136333,2.80
-1.2579333,44.5840667,11.50
-1.2809000,44.6160500,8.50
-1.2880500,44.6253500,9.20
-1.2063000,44.6232833,9.60
-1.2096167,44.6195000,7.60
-1.1525500,44.6753333,4.50
-1.1154667,44.7256000,5.20
-1.0929000,44.6817167,5.20
-1.2050500,44.6373500,5.00
-1.2229000,44.6459333,14.90
-1.0963500,44.6971833,0.00
-1.1492333,44.6681667,10.70
-1.2035833,44.6411667,-2.00
-1.1725167,44.7107167,7.60
-1.1858667,44.6780667,-0.30
-1.2089000,44.6439333,2.90
-1.1248333,44.7320333,0.70
-1.2921667,44.6246667,8.60
-1.2322000,44.5837833,11.20
-1.2323500,44.6242000,15.80
-1.1519000,44.6776500,3.30
-1.2652500,44.5859333,8.50
-1.2278667,44.6227000,3.70
-1.0962333,44.7172000,-2.60
-1.1699333,44.7131833,2.40
-1.0493500,44.6556000,-2.60
-1.0835167,44.6980000,1.80
-1.1957667,44.7227000,-2.40
-1.2233667,44.6428667,5.60
-1.2286500,44.6541833,6.00
-1.1063500,44.6858000,-0.90
-1.1549833,44.6876333,5.50
-1.0908333,44.7175333,-1.30
-1.1324000,44.7001167,2.20
-1.2481000,44.5873833,9.00
-1.2807500,44.6266167,5.30
-1.0702000,44.6589500,0.90
-1.2036833,44.7076167,-0.30
-1.2304167,44.5891500,9.10
-1.1327167,44.6773000,4.30
-1.1382500,44.6865000,-0.20
-1.1231667,44.6892667,-2.40
-1.1692167,44.7232833,3.40
-1.1596833,44.7353667,4.00
-1.2309667,44.6008333,1.00
-1.2372833,44.6556833,-1.00
-1.2897667,44.6328500,5.10
-1.1927167,44.7096000,-0.90
-1.1882167,44.7219667,0.00
-1.1556000,44.6681000,16.60
-1.1510000,44.6677000,10.00
-1.2215000,44.6818667,3.50
-1.1488333,44.6978500,6.80
-1.0294833,44.6754667,-2.60
-1.1439667,44.6682167,3.40
-1.1264167,44.7027500,-1.60
-1.2670833,44.6325000,0.00
-1.2258167,44.6905333,9.00
-1.2558500,44.6120167,-0.90
-1.2943667,44.6340333,9.10
-1.2066167,44.6264000,11.70
-1.2075333,44.7147000,10.10
-1.1594500,44.7342667,1.40
-1.2070667,44.6530000,0.60
-1.2414500,44.5823500,16.50
-1.3042167,44.6156500,14.10
-1.2311000,44.6621667,11.80
-1.2318000,44.6232333,14.30
-1.2272333,44.7016500,-2.80
-1.1512333,44.7510167,1.10
-1.2216000,44.6804500,5.40
-1.1717167,44.6656333,2.80
-1.2058333,44.6229333,11.50
-1.2180167,44.6016500,24.50
-1.0982000,44.6601833,-1.00
-1.1811667,44.7234833,2.00
-1.2214500,44.6694500,-1.70
-1.2779500,44.5768833,5.10
-1.1488333,44.7469333,-2.40
-1.2090167,44.6124667,15.80
-1.2076500,44.6111167,3.90
-1.1252167,44.7181167,-0.30
-1.2482000,44.5812167,11.90
-1.1747667,44.7448667,-3.40
-1.1562500,44.6655500,2.20
-1.3051333,44.6108833,8.30
-1.0683500,44.6663667,-1.00
-1.1548833,44.6950667,-1.20
-1.2641500,44.5675167,1.40
-1.2256167,44.7005667,3.50
-1.2154000,44.6007000,10.80
-1.1520833,44.7042333,5.60
-1.1419000,44.6603333,-2.60
-1.2159833,44.7114167,-2.20
-1.2713167,44.6031833,6.10
-1.2298333,44.6582333,12.50
-1.2658833,44.5842500,5.00
-1.1505500,44.6884000,4.60
-1.2015500,44.6453833,-1.40
-1.2350833,44.6789333,2.90
-1.1593167,44.7337833,-1.00
-1.2945833,44.5902333,7.90
-1.1086667,44.7108333,3.30
-1.2380167,44.6442667,-0.30
-1.2661667,44.5827833,4.50
-1.2338833,44.6229500,11.00
-1.1638500,44.7308667,1.40
-1.0779000,44.6970333,-1.30
-1.3038667,44.6089167,9.50
-1.0671667,44.6806500,2.80
-1.2831000,44.5764500,9.40
-1.1671333,44.6669833,9.10
-1.1587500,44.7358333,4.50
-1.1779500,44.6690333,13.70
-1.2351667,44.5956167,4.40
-1.1100667,44.6844167,-2.40
-1.2098167,44.6859500,-2.70
-1.2621333,44.5832000,7.00
-1.2706000,44.5720333,4.60
-1.1726333,44.7448833,0.10
-1.1883000,44.6623667,-1.90
-1.2256333,44.6236833,0.40
-1.1633167,44.7291500,5.60
-1.2517833,44.5860333,13.00
-1.1086667,44.6972667,0.00
-1.1934500,44.6606167,1.50
-1.0877000,44.7104667,2.20
-1.1826833,44.7169833,4.70
-1.0989833,44.7136333,5.50
-1.1752333,44.7108667,6.10
-1.2292167,44.5864500,15.00
-1.1611667,44.6982333,-2.30
-1.1507667,44.7108167,-2.50
-1.2949167,44.5998833,6.30
-1.2156000,44.6347333,-0.50
-1.0987500,44.6488333,-3.00
-1.1768667,44.7198667,4.50
-1.1404833,44.7210833,-1.20
-1.1193167,44.6980000,-1.10
-1.2708333,44.6327500,3.80
-1.2368333,44.6570833,0.30
-1.1476500,44.6845833,-1.00
-1.2045833,44.6253333,8.00
-1.2349167,44.6402167,9.80
-1.2674333,44.6386333,3.50
-1.2883500,44.5980333,1.60
-1.2338500,44.6746833,5.90
-1.2346500,44.6308833,13.90
-1.1512833,44.7449500,3.80
-1.1588167,44.6675667,18.90
-1.2834000,44.6178000,7.60
-1.2247000,44.6898500,8.00
-1.2543500,44.6064333,-1.40
-1.1799833,44.6645500,0.60
-1.2236500,44.6942500,8.70
-1.1988667,44.6581333,2.80
-1.1917000,44.7296833,-3.20
-1.2274000,44.6465167,6.20
-1.2322333,44.5813000,-1.70
-1.2260000,44.5918500,18.00
-1.1782500,44.6657333,5.00
-1.2195167,44.6623333,4.60
-1.2340333,44.6551333,15.00
-1.1892167,44.6628167,-1.10
-1.2877167,44.6065000,3.20
-1.1716167,44.6676833,12.00
-1.1228167,44.6615500,3.90
-1.1677167,44.6693833,11.90
-1.1496333,44.7288833,3.90
-1.2783833,44.5759167,8.40
-1.2576833,44.5900167,12.50
-1.1220000,44.6873333,2.40
-1.2227667,44.6513667,3.80
-1.1987000,44.7138167,9.10
-1.0394333,44.6709167,-0.80
-1.2322500,44.5831167,9.20
-1.2239833,44.5921000,17.70
-1.2340333,44.6709833,7.20
-1.2038000,44.6395167,-2.60
-1.1256333,44.7046167,1.20
-1.1669500,44.6647167,-2.40
-1.1046500,44.6818500,0.50
-1.0616167,44.6554833,-0.30
-1.2646333,44.5718833,0.20
-1.1794333,44.6741500,6.80
-1.2367667,44.6417333,7.40
-1.2107000,44.7149000,-2.30
-1.0844167,44.7097667,-1.30
-1.1772500,44.6670833,15.00
-1.2082167,44.7155667,-0.40
-1.2852500,44.5744333,10.40
-1.1454167,44.7347500,3.80
-1.1145667,44.7114500,6.40
-1.2198167,44.6689833,7.30
-1.3086833,44.6170500,17.50
-1.0999333,44.6891667,0.40
-1.2013833,44.6523333,2.40
-1.2713500,44.5882000,7.40
-1.2240667,44.7023667,1.20
-1.1825500,44.6748833,7.00
-1.2073667,44.6375667,11.50
-1.2329167,44.6587000,15.00
-1.2358500,44.6739500,8.80
-1.1639333,44.7594667,-2.10
-1.1306167,44.6553500,-1.00
-1.1132500,44.7238167,6.70
-1.1618667,44.7119833,6.30
-1.2557500,44.5894000,11.40
-1.2378000,44.6275000,2.70
-1.1114333,44.7103000,1.10
-1.2261000,44.6343833,6.70
-1.2220833,44.5980333,13.60
-1.1498667,44.6947667,0.10
-1.2375833,44.6499500,-2.20
-1.1219167,44.7295833,1.80
-1.0915333,44.7115500,4.00
-1.2335333,44.6529500,13.50
-1.1240000,44.7092500,-0.80
-1.2333667,44.6161333,4.80
-1.2167167,44.6522667,13.20
-1.2809000,44.5961333,7.00
-1.2914500,44.6051167,2.20
-1.2958333,44.6247667,5.60
-1.2253000,44.6120000,8.70
-1.2459333,44.5809000,12.00
-1.2327167,44.6291000,16.90
-1.1203833,44.7353500,0.30
-1.0302333,44.6568333,-1.70
-1.1681333,44.7275167,9.60
-1.1967500,44.7100833,-0.30
-1.2694833,44.5753833,3.00
-1.2641167,44.5902333,15.90
-1.2855167,44.5850167,2.40
-1.2156000,44.6025500,20.40
-1.2809833,44.6060667,9.50
-1.2420333,44.5865500,14.40
-1.1499000,44.7416500,-2.50
-1.1911667,44.6614833,-2.60
-1.2347000,44.6439000,10.90
-1.2994000,44.6004000,8.70
-1.0989000,44.7013167,-2.00
-1.2065333,44.6396333,10.00
-1.2704167,44.5824500,3.10
-1.2372500,44.6263000,6.20
-1.1992167,44.7147000,11.90
-1.2183667,44.6452833,-0.10
-1.1671167,44.7121000,2.00
-1.2111000,44.6579000,7.50
-1.2342833,44.6867500,-2.70
-1.2438500,44.5757833,2.60
-1.2459000,44.5798667,9.50
-1.0900667,44.6482833,-3.60
-1.2996167,44.6033000,6.30
-1.2745667,44.5932000,9.20
-1.2390500,44.5882167,10.30
-1.2369000,44.6362167,3.80
-1.1586167,44.6937167,-2.20
-1.1032667,44.6784833,6.20
-1.0403333,44.6697000,-2.60
-1.1673000,44.7252500,1.20
-1.2091333,44.6398500,9.30
-1.1581667,44.7295167,2.00
-1.2022000,44.6755333,1.10
-1.1856333,44.6631833,-2.40
-1.3004667,44.6328167,15.10
-1.1682000,44.6684333,22.00
-1.2376833,44.6417833,2.00
-1.2085000,44.6286667,12.90
-1.1838000,44.7191333,1.10
-1.0917833,44.6806500,-0.80
-1.1680167,44.6733667,6.20
-1.1292667,44.7004333,-1.20
-1.1063000,44.6694333,3.00
-1.1092167,44.7000167,-2.20
-1.2148667,44.6126000,9.40
-1.0952500,44.6782333,2.20
-1.2604500,44.6119500,0.90
-1.0599667,44.6805833,-2.20
-1.1406833,44.6831833,-2.50
-1.2350333,44.6122167,4.00
-1.2321500,44.6822000,0.80
-1.0913667,44.6793167,1.40
-1.2200167,44.6153667,6.60
-1.0987333,44.6792500,5.70
-1.0877333,44.6779333,1.00
-1.1135833,44.6708333,3.50
-1.1278833,44.7340333,-2.30
-1.2245500,44.6344833,1.70
-1.1473333,44.7321500,2.80
-1.1676667,44.6729833,6.70
-1.1408333,44.6637667,2.90
-1.1409667,44.6641667,3.40
-1.0900667,44.6775667,0.40
-1.2945000,44.6298000,8.30
-1.1465000,44.6742667,7.30
-1.2159500,44.6471833,-0.50
-1.2240500,44.6992167,5.50
-1.0334667,44.6691500,-2.40
-1.1426333,44.6638000,4.50
-1.0915167,44.6839167,-0.70
-1.1188500,44.7042500,-2.10
-1.1479667,44.6738333,6.00
-1.1504167,44.6790500,7.80
-1.0852000,44.6632833,-2.60
-1.1823833,44.7331167,-2.10
-1.0237333,44.6671000,-3.10
-1.1171500,44.7205000,2.30
-1.1356500,44.7241000,-2.00
-1.0681500,44.6769333,-2.50
-1.1760167,44.7179833,-1.40
-1.1443000,44.6884500,-2.30
-1.1424333,44.7247833,-2.10
-1.1692500,44.7173833,-1.50
-1.2181000,44.6786833,-1.50
-1.1924167,44.6698500,8.70
-1.1507000,44.6704000,6.60
-1.2139333,44.6767000,-0.90
-1.0942500,44.6625333,-0.90
-1.0754833,44.6711167,1.20
-1.1409000,44.7341667,-0.70
-1.1454333,44.7295000,-2.10
-1.2259833,44.6223000,6.20
-1.2169167,44.6761333,-1.40
-1.0957833,44.6908833,3.20
-1.1623333,44.7255000,-2.10
-1.2271667,44.6776667,0.50
-1.0891833,44.6772167,0.00
-1.1244167,44.7036333,-0.90
-1.1581000,44.7368000,2.40
-1.2238167,44.6227667,0.50
-1.1904667,44.6677500,9.70
-1.2127500,44.6774167,-1.10
-1.1086833,44.6692167,2.60
-1.0645000,44.6636167,-1.80
-1.2607833,44.6156333,0.20
-1.0673000,44.6739167,-3.00
-1.2363500,44.5992500,1.40
-1.1198000,44.7178667,2.10
-1.0921333,44.6566500,-2.20
-1.1486667,44.6695333,7.40
-1.1383333,44.6871000,-1.60
-1.1606500,44.7319500,2.40
-1.1401000,44.6699833,5.20
-1.1711167,44.7215833,-0.60
-1.1610833,44.6896833,-2.70
-1.1550833,44.7365333,1.80
-1.1532500,44.7279833,3.60
-1.2009333,44.6797333,-1.50
-1.0741333,44.6849167,-0.90
-1.1504000,44.6700333,7.10
-1.1211333,44.7148167,-2.50
-1.1186833,44.7102333,3.00
-1.1219667,44.7117000,-2.70
-1.1203667,44.6683000,2.90
-1.1310833,44.7072500,2.10
-1.1418500,44.6754667,7.20
-1.2414500,44.6099167,5.30
-1.1903667,44.6705000,8.40
-1.1335667,44.6872000,-2.10
-1.1481833,44.7260167,-2.20
-1.1644167,44.7138167,-1.00
-1.0982833,44.6859167,-2.20
-1.1148000,44.7024333,-1.50
-1.0816667,44.6792500,-2.10
-1.1408500,44.6949167,-2.50
-1.2168833,44.6796500,-1.10
-1.1184500,44.7108500,-1.80
-1.0723833,44.6586000,-0.60
-1.0951833,44.6614000,-2.30
-1.2481167,44.5915667,0.80
-1.0793333,44.6660500,-2.60
-1.1292167,44.6655667,-2.60
-1.0481667,44.6605167,-0.90
-1.1761333,44.7186000,-1.30
-1.2164833,44.6243000,0.20
-1.2385667,44.5995000,1.00
-1.1602000,44.7370167,-1.20
-1.2746667,44.5976333,12.00
-1.2196167,44.6309000,1.10
-1.0800833,44.6848667,-1.00
-1.2566667,44.6086167,1.20
-1.1470667,44.6993167,3.40
-1.1058000,44.6970167,-2.00
-1.1333500,44.7042333,4.00
-1.1818833,44.7147833,-0.90
-1.1605167,44.7333833,2.70
-1.1610167,44.6844000,-2.20
-1.1441833,44.6914833,-2.40
-1.1304667,44.6506167,-3.00
-1.1511000,44.7258167,-1.80
-1.0936833,44.6805500,2.20
-1.1410833,44.7168167,-1.80
-1.0353167,44.6664333,-2.40
-1.2663667,44.6200833,0.80
-1.1882667,44.7083667,-3.00
-1.2203833,44.6330333,-0.30
-1.1913333,44.7077667,-2.50
-1.1663167,44.7232333,-1.80
-1.0596500,44.6502000,-2.50
-1.1337333,44.7333500,-2.00
-1.0355667,44.6553167,-2.10
-1.2269000,44.6067500,-1.00
-1.1648167,44.6778000,-2.20
-1.1727833,44.6720333,7.50
-1.1556167,44.7265500,-1.80
-1.0425667,44.6789833,-2.00
-1.0714333,44.6588000,-0.60
-1.1300167,44.6524167,-2.80
-1.1135667,44.6653000,-2.50
-1.1103000,44.7052333,-1.60
-1.0943500,44.6648000,2.40
-1.0717000,44.6871333,2.60
-1.2619667,44.6129833,1.60
-1.1245833,44.7204167,-2.60
-1.0796833,44.6514833,-2.20
-1.0951167,44.6787500,0.80
-1.1407333,44.6890167,-2.30
-1.1481667,44.7265833,-2.20
-1.1170000,44.6586000,-2.50
-1.1109500,44.6584333,-2.70
-1.2160833,44.6126833,9.30
-1.1819500,44.7322167,-2.20
-1.1872500,44.6661333,6.30
-1.1189667,44.6567500,-2.80
-1.1475167,44.7332667,2.80
-1.1830167,44.6718000,6.20
-1.1342500,44.7305500,-2.10
-1.2794833,44.6180667,6.20
-1.1714167,44.7365000,-2.30
-1.1164500,44.7196500,2.30
-1.2947833,44.6284167,8.90
-1.1558333,44.7354667,-2.00
-1.0603833,44.6800000,-2.50
-1.1203667,44.7179667,2.70
-1.2738333,44.5978667,11.00
-1.1381833,44.6771000,-0.80
-1.0688333,44.6600833,-2.30
-1.1035167,44.6641333,1.10
-1.1419667,44.6640667,4.30
-1.0643333,44.6519333,-2.50
-1.1224000,44.6717000,-2.90
-1.2171667,44.6293000,-0.30
-1.1574000,44.7370500,1.80
-1.2131333,44.6796333,-1.80
-1.2175833,44.6174500,6.90
-1.1704000,44.7201500,-1.50
-1.0560500,44.6637833,-1.80
-1.2444500,44.6132500,1.00
-1.1422833,44.7101333,-1.90
-1.0903333,44.6787667,2.00
-1.0424833,44.6620333,-1.60
-1.0856167,44.6834833,-1.30
-1.2315167,44.6068667,-1.60
-1.1417167,44.6714833,7.60
-1.0363167,44.6518500,-2.10
-1.1435667,44.6853167,-2.40
-1.1365000,44.7459833,-2.00
-1.0837333,44.6842667,2.40
-1.2382167,44.6193000,5.70
-1.2226833,44.6678333,-0.50
-1.1016500,44.6642833,1.30
-1.2540333,44.5980167,0.50
-1.1215500,44.6764500,5.40
-1.2377000,44.6080667,3.90
-1.1505000,44.7041667,4.00
-1.2249833,44.6264000,0.10
-1.1620667,44.6717000,2.70
-1.2180500,44.7001833,5.60
-1.1412500,44.7158333,-1.10
-1.0736333,44.6849500,-0.80
-1.0943000,44.7156000,-2.50
-1.0264333,44.6638167,-2.90
-1.2100333,44.6778500,-0.90
-1.1574833,44.7298667,-1.60
-1.1136667,44.6503500,-3.00
-1.1101000,44.7043500,-1.60
-1.1976833,44.6784833,-0.50
-1.1908500,44.7268833,-1.70
-1.1491167,44.6719667,6.80
-1.0951500,44.6636833,1.90
-1.1042167,44.6648667,-1.30
-1.0723333,44.6756500,-2.80
-1.1486333,44.7085833,0.00
-1.0875833,44.6724167,-2.50
-1.2844500,44.6088167,7.20
-1.0804500,44.6746500,1.30
-1.0933333,44.6634167,2.50
-1.0955167,44.6929500,3.70
-1.1150000,44.7334500,-2.50
-1.1424500,44.6619500,0.50
-1.1448833,44.6706833,6.00
-1.2699333,44.6240167,1.60
-1.0869000,44.7060500,-2.60
-1.1126167,44.6936333,-1.90
-1.1518667,44.6686667,7.70
-1.0698333,44.6908000,-2.30
-1.1416000,44.6659333,4.00
-1.2061833,44.6529333,-1.70
-1.1220500,44.6843333,2.90
-1.2169167,44.6167667,7.80
-1.2894167,44.6165500,3.50
-1.1644500,44.7177167,-1.80
-1.1090000,44.6988000,-2.00
-1.2324667,44.6202833,9.00
-1.1408833,44.7182000,-2.20
-1.0720333,44.6730500,-2.80
-1.2160833,44.5990500,12.80
-1.0836167,44.6770167,1.50
-1.1436167,44.6890667,-2.40
-1.1425667,44.7063167,0.00
-1.1485333,44.6643500,4.40
-1.1277167,44.7348167,-2.20
-1.2586333,44.6164167,0.90
-1.1193833,44.6763167,5.00
-1.1214833,44.6623167,3.30
-1.2683000,44.6300500,2.90
-1.0897333,44.7098833,-3.30
-1.1042000,44.6876833,-1.20
-1.2176167,44.6143833,7.30
-1.1912833,44.7141333,8.60
-1.1517167,44.7263333,-2.00
-1.1460833,44.7000833,4.80
-1.2211667,44.6762000,3.70
-1.1651000,44.7198667,-2.10
-1.2534833,44.6127333,0.40
-1.1227833,44.6698167,-2.30
-1.0658333,44.6624667,-2.20
-1.2212167,44.6301500,2.20
-1.1674833,44.7073667,-1.30
-1.2643667,44.5887500,14.00
-1.2829167,44.6253333,6.30
-1.2144167,44.6828500,-2.20
-1.0772000,44.6903667,2.00
-1.1152833,44.7251667,0.30
-1.1470167,44.6671833,7.10
-1.2316833,44.5907500,2.00
-1.1155000,44.7055500,-0.80
-1.0727167,44.6690500,0.50
-1.0360500,44.6600667,-1.70
-1.0253167,44.6651333,-2.70
-1.1018833,44.6813500,2.50
-1.1556667,44.7083000,4.00
-1.2785500,44.5855500,3.90
-1.1056000,44.6660333,-2.50
-1.2871833,44.6147667,3.70
-1.2443167,44.5981167,0.90
-1.1225000,44.7138500,-2.30
-1.2429167,44.6108500,4.60
-1.0822833,44.7015833,-2.50
-1.2140000,44.6317000,0.90
-1.0750333,44.6856000,0.00
-1.0959833,44.7120333,-1.50
-1.0813333,44.6878500,-0.40
-1.0961667,44.6501833,-2.80
-1.0408833,44.6760833,-2.20
-1.0319167,44.6603500,-1.90
-1.0886167,44.7173167,-2.50
-1.1506167,44.7122500,-2.50
-1.1738500,44.7424333,-1.80
-1.1559833,44.7202000,-2.10
-1.1648167,44.7065167,-1.00
-1.1483000,44.7023167,4.50
-1.0658167,44.6828333,-0.50
-1.1588167,44.6835667,-2.20
-1.1605167,44.7266333,-1.40
-1.1161500,44.6624667,1.80
-1.1548333,44.7268000,-0.50
-1.1399667,44.6995333,4.30
-1.0893333,44.6605167,2.80
-1.1066000,44.6871833,-2.10
-1.2951000,44.6045333,4.20
-1.0961333,44.6899667,3.50
-1.1351333,44.7264500,-0.70
-1.0551833,44.6710333,-2.60
-1.2268500,44.6258500,0.30
-1.1599333,44.6795500,-1.30
-1.1974500,44.6559667,-1.20
-1.0406833,44.6566500,-2.50
-1.1507667,44.7154833,-2.50
-1.1607500,44.7462333,-2.20
-1.1323667,44.6630833,2.10
-1.1152167,44.6738500,2.40
-1.0949833,44.6921500,1.80
-1.0443000,44.6632000,-2.20
-1.1459500,44.6806500,-2.40
-1.1396000,44.6657667,2.80
-1.1269333,44.6542167,-2.90
-1.0746167,44.6556333,-1.10
-1.0711167,44.6876167,-1.90
-1.1775333,44.6711000,9.60
-1.1231833,44.6669667,2.00
-1.1510333,44.7290000,-1.50
-1.1615833,44.7228833,-2.20
-1.2266167,44.6278833,1.20
-1.2367333,44.6284833,8.00
-1.2224500,44.6428500,-1.20
-1.2020667,44.6738000,-0.70
-1.1564333,44.7218500,-2.10
-1.0474667,44.6548833,-2.30
-1.1438000,44.6650167,4.70
-1.1662000,44.6654000,-1.30
-1.1075833,44.7077500,-1.30
-1.0891167,44.6568667,-2.00
-1.0899667,44.6617167,2.50
-1.2387167,44.6096333,5.50
-1.0758000,44.6716667,0.30
-1.2902667,44.6247833,8.00
-1.1242167,44.7340833,-1.50
-1.2919500,44.5979833,3.80
-1.1153333,44.7203833,1.80
-1.2243167,44.6429500,9.00
-1.0769167,44.6921833,-2.70
-1.1626333,44.7535000,-2.40
-1.2232833,44.6190000,6.00
-1.0781667,44.6801500,-2.00
-1.1486167,44.7089167,-1.50
-1.1120667,44.6730667,-1.30
-1.1288000,44.6775667,6.70
-1.1152333,44.7091000,3.20
-1.1388833,44.6557000,-1.40
-1.2290667,44.6347333,13.30
-1.0355333,44.6506833,-1.80
-1.1325833,44.7130000,-2.60
-1.2927833,44.6255500,9.00
-1.2235333,44.6770333,3.90
-1.1743500,44.6720833,9.30
-1.1142667,44.7176500,-1.60
-1.2428500,44.6355000,-3.50
-1.0990833,44.6815500,5.10
-1.1197500,44.7074833,1.40
