Bathymetry produced by Shom - 540
S186500200
long(DD),lat(DD),depth(m - down positive - LAT)
-1.0882,44.7147667,-0.8
-1.2262167,44.6330833,7.4
-1.086,44.66245,-2.3
-1.1651167,44.6666333,7.2
-1.2068667,44.6358667,11.7
-1.1412167,44.73105,-2.2
-1.2225,44.6886167,5.1
-1.2180833,44.6367167,1.7
-1.1576167,44.7099333,5.8
-1.2075333,44.6679833,3.3
-1.2227167,44.6101333,9.1
-1.0641333,44.6833,-1
-1.2054833,44.71165,2.2
-1.0813333,44.6866,-1.2
-1.2131667,44.6992,-1.4
-1.1946167,44.6673833,7.7
-1.1381667,44.6789,-2.7
-1.1109667,44.6866833,-0.2
-1.1933667,44.7179333,5.8
-1.1611833,44.69175,-1.5
-1.17075,44.6697667,13
-1.2392833,44.60255,1.3
-1.0580333,44.66355,-0.7
-1.2334,44.6806333,2
-1.1289,44.6769333,8.6
-1.095,44.6653333,3.9
-1.2308833,44.60245,1.7
-1.1511667,44.7441667,2.7
-1.1453667,44.6660167,5.5
-1.1336167,44.6649833,0.3
-1.08905,44.68445,2.7
-1.2146167,44.6082,14.5
-1.1000833,44.68705,2
-1.2271167,44.62965,4.9
-1.2454333,44.61475,3.8
-1.13385,44.7341,-1.1
-1.0750833,44.6717167,0.3
-1.1214667,44.6663167,2.1
-1.2185333,44.6258,1.5
-1.15975,44.67075,13.8
-1.2408833,44.6184833,4.9
-1.23345,44.6219,9.8
-1.17925,44.7253333,-0.4
-1.2052333,44.6737667,-1.4
-1.0886833,44.685,1.2
-1.2251667,44.6685667,0.6
-1.2128333,44.6144667,8.6
-1.2356167,44.586,10.9
-1.2253833,44.6061333,5.7
-1.1308167,44.6930667,1
-1.1335667,44.7030833,6.5
-1.1210167,44.6705667,-2.6
-1.19435,44.71215,6.2
-1.1655667,44.67505,0.7
-1.1200833,44.6728167,-0.9
-1.1399667,44.6983333,3.6
-1.1412167,44.67325,9.5
-1.1839333,44.66745,12.1
-1.2398333,44.6049333,3.8
-1.0907167,44.6835333,5.1
-1.1812833,44.6654167,8.6
-1.2140333,44.6196167,6.6
-1.1878667,44.67505,3.3
-1.2392833,44.6053667,2.2
-1.1401,44.6988167,5.6
-1.2301667,44.6283333,15.3
-1.0810667,44.6558333,-1.1
-1.1372667,44.677,1.3
-1.1331667,44.6946,-1.8
-1.143,44.6968167,-0.4
-1.1524167,44.6827167,2.2
-1.119,44.6775667,5.6
-1.1328,44.7070667,4.5
-1.2262667,44.6244,1.7
-1.1498667,44.7436333,-1.5
-1.1749167,44.6662667,9.9
-1.0993667,44.6840333,-0.3
-1.11225,44.6918167,-1.8
-1.0772167,44.6533333,-2.2
-1.0684167,44.6527667,-2.4
-1.2429167,44.5957167,-0.2
-1.2188167,44.6984167,5.8
-1.2325167,44.6803833,2.7
-1.1306,44.64915,-2.4
-1.1875167,44.7141167,9.3
-1.2133833,44.6501333,4.7
-1.24275,44.5992833,3.9
-1.0826667,44.6562333,1.6
-1.2279667,44.5988,4.9
-1.22125,44.6153,4.8
-1.1037333,44.6754,3.4
-1.11385,44.6808167,3
-1.2367,44.6686333,6.5
-1.2257667,44.6463333,6.9
-1.2254833,44.6340333,5.7
-1.17715,44.7530667,-0.6
-1.0808333,44.6884833,1.3
-1.21495,44.62655,-0.7
-1.1051,44.6755833,3.6
-1.1296667,44.6907833,-2.3
-1.14085,44.6716167,6.2
-1.1604167,44.7436833,-1.5
-1.1554833,44.66965,14
-1.0829167,44.6845167,1.6
-1.0999333,44.6887667,1.1
-1.2518,44.5876333,10.3
-1.1335167,44.7347667,-1
-1.13295,44.6777833,-0.2
-1.2468833,44.6098667,1.3
-1.22235,44.65465,1.3
-1.0258167,44.6644667,-2.5
-1.1211,44.7107333,-1.2
-1.1282667,44.6945833,-1.4
-1.1447,44.73185,-1.3
-1.102,44.6700667,-0.9
-1.1561667,44.7285333,1.7
-1.1209833,44.7338833,-0.3
-1.1800333,44.7361833,-2.3
-1.2213167,44.6545333,4.3
-1.0919167,44.6676167,-2.3
-1.11015,44.6816167,0.3
-1.1032667,44.6818833,0.3
-1.2380167,44.5832167,13.6
-1.0494167,44.65245,-2.3
-1.1355333,44.7517167,-2.3
-1.1564667,44.6659333,7.9
-1.1772833,44.7364,-2
-1.09125,44.6901333,-2.1
-1.2105667,44.6361667,11
-1.0741667,44.6676,-2
-1.21245,44.6515167,7.6
-1.2073,44.6461333,1.9
-1.2414333,44.6129667,4.2
-1.0984667,44.6642833,-0.5
-1.2248333,44.6515667,1.9
-1.1299167,44.7097833,3.7
-1.17965,44.6747167,5.8
-1.12055,44.7168,-0.2
-1.1057333,44.6644833,-0.9
-1.1438,44.6582,0.6
-1.1643,44.6657,2.4
-1.1524833,44.7440167,-2
-1.2157333,44.6156333,6.6
-1.2272833,44.6671,0.6
-1.2206167,44.6145,5.3
-1.0792,44.6904667,-0.8
-1.1897167,44.7107167,-1.5
-1.0678833,44.6470167,-4.1
-1.17315,44.70525,-0.5
-1.0678833,44.66685,0.9
-1.08635,44.7066167,-1.8
-1.2056833,44.6834,-2
-1.2119667,44.6066167,18
-1.2231667,44.6828333,7
-1.1968833,44.6684167,5.6
-1.0971,44.6856333,3.7
-1.0588833,44.67425,-0.1
-1.1424833,44.73585,3.1
-1.2105833,44.6256667,2.2
-1.2062167,44.7101,1
-1.1211,44.66005,-1.7
-1.1346667,44.6879667,-2.1
-1.2186167,44.6006667,22
-1.2013333,44.71895,-2.3
-1.2379833,44.6594833,0.3
-1.1805333,44.7222333,3.3
-1.19975,44.706,-2
-1.1840167,44.7197167,1
-1.2427167,44.6003333,3
-1.0323833,44.6709167,-1.5
-1.1501667,44.6627,0.7
-1.0948833,44.7142833,-0.8
-1.0412,44.67555,-0.7
-1.1820833,44.6697667,12
-1.1267,44.66875,-2.7
-1.0795333,44.6741,2.1
-1.1299667,44.7013833,-0
-1.2279333,44.6172333,7.6
-1.1374167,44.74135,1.2
-1.0879667,44.6623667,-1.2
-1.24535,44.6044833,1.2
-1.0838333,44.6976,2.7
-1.1748333,44.7096833,-0.7
-1.1476667,44.70745,4.5
-1.19025,44.67725,5.5
-1.21665,44.6716,5.2
-1.1361667,44.6724167,7.7
-1.2099833,44.6497333,1.9
-1.1273333,44.6891167,3.3
-1.1049833,44.6918667,-0.3
-1.2383833,44.6074833,5.2
-1.1527,44.6889667,-0.3
-1.14865,44.6824667,4.3
-1.1885167,44.6756833,2.8
-1.2354,44.6252333,11.3
-1.09765,44.71385,4.8
-1.2139833,44.6501167,9.4
-1.0884333,44.7142833,3.7
-1.1603167,44.7077833,6.6
-1.1224833,44.6650667,-0.2
-1.1331,44.7051833,3.7
-1.1326,44.7392,1.5
-1.10665,44.6758333,5
-1.1652167,44.6735833,5.5
-1.1929,44.7251833,-1.5
-1.21895,44.6306667,0.7
-1.0713833,44.6581167,-1.2
-1.14415,44.6686667,8.8
-1.1264333,44.6917333,-2.6
-1.1380667,44.6956,-1.9
-1.0867167,44.6618667,-1.7
-1.0953167,44.71935,-1.6
-1.0978,44.6647333,1.5
-1.0900833,44.6808333,-1.2
-1.1399,44.673,8
-1.1408833,44.69635,-2
-1.1496,44.7006167,1.5
-1.2099,44.7077,5.3
-1.24185,44.5845,10.9
-1.1379833,44.7364,0.3
-1.1186,44.6795833,5.1
-1.1546333,44.7140667,-2.1
-1.0345333,44.6515833,-2.5
-1.2049333,44.6547167,1.1
-1.1033667,44.6766333,7.2
-1.2115833,44.64665,2.9
-1.1584,44.7006333,-1.5
-1.2131833,44.6721833,-0.8
-1.2370833,44.6142833,6.8
-1.1112,44.6767833,6.3
-1.0774167,44.6589333,-1.6
-1.06,44.6839667,-0.3
-1.0685167,44.6821667,2
-1.1902833,44.7123833,7.8
-1.17265,44.6711833,14.5
-1.145,44.70765,3.2
-1.2199167,44.6476833,9.5
-1.2477167,44.59665,0.3
-1.0979667,44.6527333,-2.4
-1.04835,44.6767,-2.1
-1.1233333,44.6637667,2.2
-1.1178,44.68965,-0.1
-1.0340667,44.6522,-2.8
-1.2128333,44.6400167,4.6
-1.2175667,44.6348,0.7
-1.1697167,44.7472833,-1.5
-1.1102833,44.68045,2.7
-1.17825,44.7144333,2.9
-1.2349667,44.5978167,4.3
-1.1261167,44.71455,2.3
-1.2476833,44.6030333,1.8
-1.2418833,44.5962833,-0
-1.1406333,44.72035,-0.5
-1.1141,44.6645833,-2
-1.23235,44.68575,1.7
-1.2147,44.6727167,2.2
-1.1175,44.6824333,1.3
-1.0960667,44.6799333,6.7
-1.2467333,44.5972333,-0.3
-1.1187,44.68345,0.7
-1.08725,44.67675,-1.1
-1.1835167,44.6798333,-1.5
-1.2262,44.6517833,5.3
-1.2002167,44.6495167,-0.5
-1.12545,44.7295,-2.1
-1.2366,44.63085,6.1
-1.2306667,44.6175167,8.8
-1.1154,44.7048167,-1.6
-1.2369667,44.5860167,10.3
-1.23335,44.6473667,12.1
-1.1755667,44.7119667,5.6
-1.1566833,44.7362667,2.1
-1.0628333,44.6653667,0.6
-1.1723667,44.6682833,16.5
-1.0925333,44.6821833,5.5
-1.2001833,44.7214333,-2.1
-1.1628333,44.6751167,4.1
-1.1037,44.6779833,8.4
-1.1610833,44.6681,20.8
-1.2065167,44.7106333,1.8
-1.2094667,44.7134333,11.9
-1.2251667,44.6890667,8.6
-1.2301667,44.6619333,13.2
-1.1136,44.7233667,4.1
-1.2343667,44.6297667,16.5
-1.0851333,44.6579167,4.7
-1.2076833,44.7116,1.5
-1.0787833,44.67965,-2.5
-1.2103833,44.68645,-2.5
-1.1335667,44.68245,-2.5
-1.1162333,44.7175167,-1.9
-1.1383167,44.7345667,-0.9
-1.1699667,44.7191167,-1.4
-1.1157167,44.71315,-2.4
-1.1126833,44.6515167,-2.6
-1.0835667,44.6552667,-1.1
-1.1884167,44.7224167,-0.6
-1.2197,44.6934167,2.6
-1.0943,44.6634667,2.1
-1.2411167,44.6346,-2.5
-1.1434333,44.6948333,-2.1
-1.1891833,44.7241667,-1
-1.0744167,44.6736333,-1.1
-1.22415,44.6371167,-0.4
-1.04905,44.6754333,-1.8
-1.1777667,44.67285,7.9
-1.1859,44.6660833,7
-1.0978167,44.67075,-2
-1.0308833,44.66495,-2.4
-1.09235,44.6886167,2.8
-1.0622333,44.6827,-0.7
-1.1498667,44.6690167,9.4
-1.0607833,44.6795333,-2.4
-1.1696667,44.6682833,16.8
-1.1168333,44.72675,-2.1
-1.0853833,44.6721833,-2.3
-1.1997667,44.6511833,-1.1
-1.2230833,44.6248,0.2
-1.1228667,44.6692167,-2.2
-1.2090333,44.7062167,4.9
-1.1457833,44.6828667,-2.1
-1.14935,44.6828,5.8
-1.1787667,44.6769667,-1.3
-1.1469667,44.6755167,-0.5
-1.2256833,44.6254667,0.1
-1.0318167,44.67185,-1.9
-1.1742667,44.6716667,10.1
-1.0897167,44.7192333,-2.4
-1.2282167,44.6694167,2.4
-1.2106667,44.6803833,-1.7
-1.1480333,44.7236333,-2.2
-1.22105,44.6035,5.7
-1.2429167,44.6021167,3.4
-1.23685,44.58405,13.2
-1.1193167,44.7085333,4.3
-1.0694333,44.68535,3.5
-1.1332,44.7102833,-2.2
-1.1161167,44.7253833,2.3
-1.0969833,44.6877667,2.6
-1.2056833,44.6412667,6.6
-1.1309,44.6856333,-1.8
-1.2504667,44.6085333,1.3
-1.19845,44.7066833,-2.1
-1.16055,44.73015,-0.8
-1.1250333,44.6618,4.7
-1.21455,44.6110167,14.7
-1.1564833,44.6932167,0.2
-1.2417167,44.6149167,4.8
-1.1727,44.6742667,0.7
-1.1991,44.6492333,0.5
-1.2059333,44.6435167,6
-1.101,44.6758167,2
-1.1479833,44.6662,6.4
-1.1199167,44.6611,-0.2
-1.2040667,44.67185,-1.6
-1.1139333,44.7248333,4.6
-1.1898667,44.7194333,5.1
-1.1059167,44.6737167,-2.5
-1.1158167,44.7215333,0.3
-1.1278333,44.6599333,2.8
-1.2082833,44.6416167,8.7
-1.0818333,44.6593,-2.3
-1.1782667,44.7420833,-2.8
-1.1005833,44.6786,8.5
-1.2234333,44.6879667,5.7
-1.0575833,44.6753,0.1
-1.2413,44.6382333,-1.7
-1.13655,44.66095,2.4
-1.22105,44.6969333,6.7
-1.1528667,44.7358833,-2.1
-1.1168,44.6644167,-1.3
-1.1763333,44.7131167,5.6
-1.2458833,44.5820833,11.4
-1.1548,44.6893667,8.9
-1.0742667,44.7003333,-2.2
-1.1487167,44.7493,0.8
-1.2201,44.6910833,-1
-1.15495,44.7109,-1.5
-1.2120833,44.65805,11.6
-1.1801,44.7115833,8.7
-1.1555833,44.7178333,-2.2
-1.2247667,44.6605833,6.1
-1.22815,44.6324833,7.7
-1.13615,44.7205667,-2.5
-1.2264167,44.7011,2.1
-1.1670333,44.6709167,3.9
-1.2281833,44.6341333,10.1
-1.17255,44.6698167,14.6
-1.0894667,44.7127,3.7
-1.2328833,44.6625333,11
-1.1815667,44.7241,0.3
-1.12505,44.6809167,-2.1
-1.0949,44.69485,3.3
-1.1579333,44.6731833,1.9
-1.2455167,44.5977167,-0.7
-1.0525167,44.66895,0.3
-1.0888667,44.7026,-2.3
-1.2138167,44.6419833,4.2
-1.1511333,44.68545,7
-1.2068833,44.7032,-1
-1.1911,44.72155,6.3
-1.0929667,44.7237667,-2.4
-1.1867667,44.7081667,-3
-1.12965,44.6613167,5.9
-1.1521333,44.7518167,2.4
-1.2265833,44.63725,8.8
-1.1339333,44.64745,-3
-1.0929,44.6817167,5.5
-1.2035833,44.6411667,-1.7
-1.0962333,44.7172,-2.3
-1.1231667,44.6892667,-2.1
-1.1488333,44.69785,7.1
-1.2318,44.6232333,14.6
-1.2272333,44.70165,-2.5
-1.22145,44.66945,-1.4
-1.1488333,44.7469333,-2.1
-1.2338833,44.62295,11.3
-1.1100667,44.6844167,-2.1
-1.09875,44.6488333,-2.7
-1.1496333,44.7288833,4.2
-1.2038,44.6395167,-2.3
-1.0915333,44.71155,4.3
-1.2335333,44.65295,13.8
-1.2156,44.60255,20.7
-1.1292667,44.7004333,-0.9
-1.2350333,44.6122167,4.3
-1.23215,44.6822,1.1
-1.1278833,44.7340333,-2
-1.1473333,44.73215,3.1
-1.0900667,44.6775667,0.7
-1.0334667,44.66915,-2.1
-1.11885,44.70425,-1.8
-1.11715,44.7205,2.6
-1.06815,44.6769333,-2.2
-1.1443,44.68845,-2
-1.2139333,44.6767,-0.6
-1.1454333,44.7295,-1.8
-1.2169167,44.6761333,-1.1
-1.1623333,44.7255,-1.8
-1.1244167,44.7036333,-0.6
-1.1581,44.7368,2.7
-1.2238167,44.6227667,0.8
-1.1904667,44.66775,10
-1.0645,44.6636167,-1.5
-1.0921333,44.65665,-1.9
-1.1401,44.6699833,5.5
-1.1203667,44.6683,3.2
-1.1903667,44.6705,8.7
-1.0982833,44.6859167,-1.9
-1.1292167,44.6655667,-2.3
-1.2385667,44.5995,1.3
-1.0800833,44.6848667,-0.7
-1.1058,44.6970167,-1.7
-1.1818833,44.7147833,-0.6
-1.1304667,44.6506167,-2.7
-1.2203833,44.6330333,-0
-1.0355667,44.6553167,-1.8
-1.2269,44.60675,-0.7
-1.1648167,44.6778,-1.9
-1.1135667,44.6653,-2.2
-1.0717,44.6871333,2.9
-1.1245833,44.7204167,-2.3
-1.1407333,44.6890167,-2
-1.117,44.6586,-2.2
-1.2160833,44.6126833,9.6
-1.18195,44.7322167,-1.9
-1.1714167,44.7365,-2
-1.1558333,44.7354667,-1.7
-1.0603833,44.68,-2.2
-1.1419667,44.6640667,4.6
-1.1574,44.73705,2.1
-1.1704,44.72015,-1.2
-1.1422833,44.7101333,-1.6
-1.0903333,44.6787667,2.3
-1.10165,44.6642833,1.6
-1.12155,44.67645,5.7
-1.2249833,44.6264,0.4
-1.21805,44.7001833,5.9
-1.0736333,44.68495,-0.5
-1.1136667,44.65035,-2.7
-1.19085,44.7268833,-1.4
-1.1491167,44.6719667,7.1
-1.09515,44.6636833,2.2
-1.14245,44.66195,0.8
-1.1518667,44.6686667,8
-1.2061833,44.6529333,-1.4
-1.0720333,44.67305,-2.5
-1.1436167,44.6890667,-2.1
-1.1214833,44.6623167,3.6
-1.2211667,44.6762,4
-1.2212167,44.63015,2.5
-1.1470167,44.6671833,7.4
-1.0253167,44.6651333,-2.4
-1.1018833,44.68135,2.8
-1.1556667,44.7083,4.3
-1.214,44.6317,1.2
-1.0750333,44.6856,0.3
-1.0959833,44.7120333,-1.2
-1.0886167,44.7173167,-2.2
-1.17385,44.7424333,-1.5
-1.1559833,44.7202,-1.8
-1.1588167,44.6835667,-1.9
-1.1399667,44.6995333,4.6
-1.0961333,44.6899667,3.8
-1.19745,44.6559667,-0.9
-1.1507667,44.7154833,-2.2
-1.16075,44.7462333,-1.9
-1.0443,44.6632,-1.9
-1.14595,44.68065,-2.1
-1.0711167,44.6876167,-1.6
-1.1775333,44.6711,9.9
-1.2020667,44.6738,-0.4
-1.0474667,44.6548833,-2
-1.1626333,44.7535,-2.1
-1.1152333,44.7091,3.5
-1.1325833,44.713,-2.3
-1.24285,44.6355,-3.2
-1.0990833,44.68155,5.4
-1.11975,44.7074833,1.7
-1.0919667,44.67685,-1.3
-1.1433333,44.6758,-1.7
-1.2016667,44.6751167,-0.1
-1.0877667,44.69545,-1.9
-1.1207833,44.7154833,-1.6
-1.2222667,44.6390167,-0.1
-1.06275,44.65485,-1.5
-1.2142333,44.6751167,3.2
-1.2327333,44.6158667,5.6
-1.1995833,44.6507167,-0.8
-1.1626167,44.74745,-2.3
-1.2405667,44.6005167,3.3
-1.2171167,44.6588,0.3
-1.1085,44.6566,-2.3
-1.0846333,44.65545,-1.2
-1.1605333,44.70305,-1.7
-1.1691,44.6655833,5.8
-1.0610167,44.6576333,-2.2
-1.2114,44.6728167,-1.9
-1.1829833,44.7575667,-2.7
-1.2220167,44.6282333,1.1
-1.1613833,44.69515,-2.3
-1.1483333,44.7317667,2.1
-1.22895,44.6021667,-0.3
-1.1419333,44.7117,-1.9
-1.08335,44.6849,3.1
-1.0951,44.67435,-2.1
-1.11945,44.68335,2.8
-1.2070333,44.6491,-0.2
-1.0487167,44.65655,-2.1
-1.22605,44.6958833,7
-1.0475833,44.6582833,-0.9
-1.1122333,44.7087333,-1.6
-1.1230333,44.6549833,-2.2
-1.1256167,44.6764667,6.4
-1.0858167,44.6602,-1.3
-1.1588833,44.6758167,0.3
-1.1303167,44.6934833,4.3
-1.074,44.6713,-1.5
-1.1541333,44.7128,-1.9
-1.14945,44.7411167,-0.6
-1.1671667,44.6841667,-2.7
-1.15925,44.665,-1.1
-1.17815,44.7169667,-1.1
-1.0944833,44.6922333,1.8
-1.1501667,44.7485167,-2.4
-1.2105167,44.6738333,-2
-1.1578833,44.7270833,2.3
-1.14445,44.7017167,5.5
-1.24325,44.6126333,4.7
-1.1056333,44.7231333,2.7
-1.23145,44.6375167,16.3
-1.1038667,44.6860333,-0.7
-1.2190167,44.6030667,18.9
-1.2412833,44.5812,13.3
-1.10735,44.71345,3.1
-1.1436,44.6643667,3.3
-1.1827,44.6664167,10.7
-1.14305,44.6692,6.8
-1.1780333,44.6758833,-1.5
-1.1812833,44.6799667,-1.5
-1.0521,44.66045,-1.9
-1.1400333,44.6717667,7.2
-1.1766,44.71955,-0.2
-1.1456,44.6648667,4
-1.0748333,44.6837,-2.3
-1.2183333,44.6507667,13.3
-1.1520833,44.6624833,-1.2
-1.0958167,44.6733167,-2.3
-1.1989667,44.6604333,8.1
-1.0895833,44.6599167,2.1
-1.09665,44.6598333,-2.3
-1.0371333,44.6744333,-1.1
-1.1542333,44.6716333,8.2
-1.18785,44.7147667,1.9
-1.12985,44.6955,-0.1
-1.22835,44.6307167,9.3
-1.0777333,44.6729667,2.2
-1.1048167,44.66415,1.5
-1.1154667,44.71975,-1.6
-1.1483833,44.7008333,3.3
-1.2396667,44.61465,6.1
-1.2402833,44.5850333,10.8
-1.09895,44.6988167,-2.4
-1.1349,44.6642333,3.3
-1.1393167,44.6747333,8.8
-1.1386167,44.6551833,-2.7
-1.1636833,44.71605,-1.3
-1.1176,44.7185667,2.5
-1.1164833,44.7167833,-0.2
-1.1481167,44.6597167,-0.3
-1.0633333,44.6646333,0.3
-1.1407333,44.6921,-2.2
-1.23645,44.6136333,6.3
-1.1436333,44.6794333,2.4
-1.0334,44.6474333,-2.2
-1.1779833,44.7589833,-2.7
-1.1054833,44.6954167,-2.1
-1.1149,44.7213667,1.7
-1.1659667,44.6773167,-1.9
-1.1596167,44.6733,2.1
-1.1101167,44.6543333,-1.9
-1.1916333,44.6683167,7.8
-1.2292833,44.6362833,15.8
-1.1360667,44.6960167,-0.7
-1.0299167,44.6558167,-2.7
-1.0529,44.67285,-2.1
-1.1755333,44.7317667,-1.8
-1.1840333,44.72455,-0.3
-1.1125667,44.7215667,-2
-1.0668333,44.66695,1.9
-1.1573833,44.7073833,-0.6
-1.1797833,44.7202167,6.1
-1.0851167,44.6843333,2.5
-1.1842667,44.7250833,-1.4
-1.22695,44.6232,5
-1.1656833,44.7366667,-2.4
-1.11565,44.71365,-2.3
-1.1333667,44.6811333,-2.5
-1.1481333,44.7242667,-2.3
-1.0826833,44.64895,-2.3
-1.2258667,44.6552,2.1
-1.1392833,44.6565,0.1
-1.1143,44.7244833,2.3
-1.2013333,44.7113167,1.2
-1.0994333,44.66425,0.3
-1.1317167,44.74445,-2.1
-1.1679833,44.6710667,4.8
-1.1349167,44.6548167,-1.7
-1.2362667,44.6246833,10
-1.1509667,44.7190333,-2.3
-1.09115,44.6884833,2.8
-1.2282667,44.6128,7
-1.1439333,44.6633833,5.3
-1.2314833,44.6360833,13.7
-1.1566833,44.7065167,6.5
-1.1735833,44.74175,-1.7
-1.0785,44.6689167,0.8
-1.1480167,44.6685833,9.7
-1.2204667,44.6172,6.6
-1.24955,44.5929333,1.3
-1.22045,44.68625,-1.3
-1.2234833,44.6315,3.4
-1.23285,44.6210833,10.3
-1.0974,44.6668333,2.9
-1.0827333,44.6989,-2
-1.0817,44.6917167,-2.4
-1.0615833,44.6566,-0.1
-1.0988667,44.7022,-2.2
-1.2101667,44.6603667,10.9
-1.0573833,44.6632,-1.8
-1.2190167,44.6327,-1.1
-1.1554,44.7171167,-2.2
-1.0764167,44.6538833,-2.2
-1.1629333,44.7122,3.9
-1.1772667,44.6719,7.8
-1.10715,44.6685667,1.3
-1.2373167,44.6392167,-0.6
-1.08635,44.659,1.6
-1.0223833,44.67255,-2.6
-1.1432,44.6745833,8
-1.14155,44.6573833,-1.7
-1.2158833,44.63215,0.1
-1.2297,44.6674333,1.9
-1.18005,44.7603333,-3.1
-1.1728167,44.666,9.1
-1.2316333,44.6703167,4.8
-1.22905,44.6163,7.9
-1.1492167,44.7431,-1.7
-1.0814167,44.6667833,-2.3
-1.0970667,44.6531333,-2.6
-1.2007,44.6806667,-1.2
-1.2151833,44.6899333,-1.6
-1.1239833,44.66345,0.9
-1.1638,44.7527333,-1.1
-1.1265167,44.71305,-1.8
-1.0965333,44.68835,2.8
-1.17945,44.6669333,12.5
-1.1376667,44.6506167,-2.1
-1.20475,44.6722,-1.8
-1.1641,44.7558833,-2.7
-1.1705667,44.6668,11.3
-1.09705,44.69375,3.2
-1.1523333,44.7397667,-1.8
-1.2239833,44.6682833,-1
-1.2257833,44.6894333,8.1
-1.2269667,44.6118,6.2
-1.0694167,44.6846,3.3
-1.1352333,44.7042167,3.3
-1.2008667,44.7057167,-2.1
-1.14,44.72505,-1.8
-1.1384333,44.6620833,5.3
-1.0948,44.6514667,-2.5
-1.17295,44.7500833,-2
-1.1512667,44.6914167,2.8
-1.1628,44.6677333,19.3
-1.1449667,44.6806,-1.9
-1.23175,44.5938333,3.5
-1.1466333,44.6681833,8.6
-1.0972167,44.6671833,1.9
-1.1850667,44.6675667,10.7
-1.1071,44.6717667,-2.1
-1.1504667,44.6632667,1.1
-1.2254,44.6031833,6.4
-1.0326167,44.64845,-2.8
-1.1457333,44.7336667,2
-1.2234167,44.67885,6.1
-1.1815833,44.6666,12.9
-1.104,44.66245,-2
-1.2242167,44.6062,8
-1.0694333,44.6903,-2.1
-1.14365,44.68745,-0.6
-1.0513,44.67415,-0.7
-1.0860167,44.679,1.8
-1.1244,44.7334333,-1
-1.2318667,44.60295,0.9
-1.0919833,44.7108333,-2.1
-1.1806667,44.7190667,6.5
-1.22725,44.6554667,3.5
-1.1502,44.7517333,1.6
-1.1786333,44.7542667,-1.7
-1.1881167,44.7301167,-1.5
-1.1727167,44.7259333,5.3
-1.20245,44.6724833,0.3
-1.1190167,44.70975,4.3
-1.0349667,44.6612,-1.8
-1.1751,44.7243333,5.7
-1.0724667,44.65715,-1.6
-1.2129833,44.65365,12.5
-1.2211167,44.6006833,10
-1.1536167,44.68705,8.8
-1.1518,44.70335,4.9
-1.2320667,44.6302,13.8
-1.1525333,44.6865667,6.4
-1.2461833,44.6085,4.7
-1.20955,44.64175,8.7
-1.1483167,44.71035,-1.7
-1.1241667,44.6859333,2.3
-1.22805,44.6852167,6
-1.08255,44.6567167,3.2
-1.2206,44.6185,6.1
-1.1482833,44.6743,4.2
-1.1605333,44.7292667,3.1
-1.2150167,44.6401833,2.5
-1.1800667,44.7554,-2.3
-1.1675,44.7188333,-2.4
-1.1398833,44.6689333,4
-1.1414667,44.6624167,4.9
-1.1057,44.72375,-2.1
-1.2275167,44.6432,12.9
-1.1551333,44.7105333,-1.1
-1.1535333,44.7098,4.3
-1.1610833,44.68545,-2.4
-1.0899,44.6832167,4.8
-1.077,44.69335,-2.3
-1.0604667,44.6667,-2.5
-1.1538833,44.6770333,-0.1
-1.1623833,44.6721,1.5
-1.1676833,44.7438167,-0.7
-1.0319667,44.6713667,-1.9
-1.20345,44.6484333,2.9
-1.1587667,44.68655,-2.1
-1.21875,44.6404333,1.9
-1.102,44.7263,-1.9
-1.2421667,44.6168167,3.1
-1.1146167,44.7167167,3.3
-1.1333833,44.69715,6.1
-1.0754167,44.6908667,1.7
-1.1347333,44.6967667,4.3
-1.1051167,44.6668667,-2
-1.2263333,44.6680333,1.7
-1.1775833,44.7301,-2.1
-1.2012833,44.6676,5.1
-1.0840333,44.7012167,-0.6
-1.1073333,44.6923167,-1.7
-1.2013333,44.7230167,-2.7
-1.0987,44.6696333,-2
-1.24645,44.59035,0.3
-1.1178667,44.68865,-1.4
-1.1380833,44.6969,-1.3
-1.2266167,44.6464,5.6
-1.1269667,44.73795,-2
-1.0844167,44.67315,-2.4
-1.2177667,44.6424333,0.3
-1.0754333,44.6872,1.3
-1.22715,44.63355,7.8
-1.1176167,44.66855,2.3
-1.18735,44.6745,5.2
-1.0969167,44.6495333,-2.7
-1.1971,44.6598667,6.9
-1.0730333,44.6681167,-0.8
-1.16345,44.6710167,2.4
-1.1641667,44.6652667,-0.1
-1.212,44.7107333,6.5
-1.1511667,44.6711833,6.8
-1.1519333,44.7362333,-2.1
-1.23355,44.68645,-1.1
-1.2400833,44.6100167,7.6
-1.2249167,44.60355,5.7
-1.2328167,44.6493333,16
-1.1636,44.666,7.3
-1.1398,44.6663833,-0.5
-1.1857833,44.6712833,6.3
-1.152,44.6653333,5.3
-1.2086333,44.6509667,-0.9
-1.2376333,44.58915,7.3
-1.21495,44.70465,5.9
-1.1610833,44.7402833,-2
-1.1416333,44.7134167,-0.3
-1.2255667,44.5996333,4.3
-1.2267833,44.669,2.2
-1.0788667,44.6572,1.7
-1.1139833,44.73655,-1.9
-1.2017667,44.6497667,0.5
-1.1002333,44.6793,5.7
-1.11825,44.6909333,-2
-1.1210833,44.7326,-2.2
-1.0787833,44.6877333,-1.6
-1.0636167,44.6810667,-1.8
-1.1295833,44.72675,-1
-1.1697833,44.7243167,7.3
-1.1220833,44.70725,2.9
-1.2245833,44.6535167,1.7
-1.14325,44.6927667,-2.1
-1.1311833,44.7043167,6.1
-1.1394167,44.6602,-1.7
-1.1363167,44.6999833,5.2
-1.2382,44.6399,0.3
-1.1921167,44.6738667,1.9
-1.2422,44.5906833,-0.5
-1.1914,44.6711333,6.2
-1.0912333,44.6682667,-2.3
-1.1787833,44.71535,-0.8
-1.1160167,44.6693667,3.2
-1.0653,44.6670667,-1
-1.1411833,44.6647,4.3
-1.1706667,44.6687,16.9
-1.1385833,44.6602167,-0.2
-1.25195,44.60855,1.4
-1.1242,44.6613167,4.9
-1.0778,44.6911833,-2
-1.1215,44.6749833,6.5
-1.1857167,44.6688667,12.1
-1.16925,44.7306333,-1.7
-1.1485167,44.6670667,6.2
-1.1480667,44.6785333,5.8
-1.2253167,44.5982167,5.7
-1.0786833,44.6686,-0.1
-1.2093333,44.6635667,1.2
-1.0762167,44.6707167,1.5
-1.1679,44.6884167,-0.8
-1.1765833,44.7138,5.6
-1.1743833,44.7286167,-1.7
-1.2097667,44.70335,3.3
-1.0820667,44.6605,-2.4
-1.2112833,44.6662333,0.7
-1.2268333,44.5937833,3.8
-1.14285,44.7209833,-1.9
-1.14045,44.6791,-2.3
-1.2264167,44.6782167,-0
-1.0672333,44.6918333,-2.7
-1.1234333,44.7113833,-2.2
-1.1217,44.68175,1.3
-1.1135667,44.7190833,-2
-1.2242167,44.5982667,5.9
-1.1181,44.7235667,-2
-1.1257333,44.7158333,3.3
-1.19415,44.7195167,4
-1.1743833,44.72315,8.5
-1.13805,44.6823667,-1.9
-1.1556333,44.7274167,4.5
-1.2167667,44.6190667,7.3
-1.1855167,44.6671667,12.3
-1.1715333,44.7231167,9.1
-1.1863333,44.7117667,10.3
-1.2338167,44.6414333,10.5
-1.1030833,44.6771167,8.2
-1.1721333,44.742,-1.7
-1.1336667,44.6754,9.9
-1.2107667,44.61425,13.3
-1.2251667,44.69755,6.8
-1.23135,44.6818667,2.1
-1.2387833,44.6202667,7
-1.24575,44.5830833,15
-1.0333333,44.6628,-1.8
-1.2251667,44.6535833,2.8
-1.0529833,44.6501,-2.7
-1.0984333,44.7102,-1.7
-1.1905833,44.6719833,5
-1.0430833,44.6730333,-1.1
-1.1335833,44.7084333,-2.1
-1.1585,44.6961,-2.4
-1.04855,44.6762333,-0.3
-1.1498667,44.7284333,0.3
-1.0978167,44.6607,-2
-1.1232,44.6881333,3.8
-1.1652,44.6786,-2.3
-1.1068,44.72275,1.3
-1.1093833,44.6809833,3.8
-1.2474333,44.6075,3.3
-1.1415333,44.7140167,-1.9
-1.1772667,44.7214667,7.1
-1.0786833,44.69585,-1.9
-1.2415667,44.6370167,-2.1
-1.20475,44.6801,-1.4
-1.08125,44.6767333,-0.2
-1.0358167,44.6582167,-3
-1.0769833,44.6759167,-1.6
-1.1833833,44.6668667,12.1
-1.2444667,44.6048,1.7
-1.2210833,44.7003167,6.4
-1.0509167,44.65335,-2.5
-1.0772667,44.6733833,0.5
-1.0852167,44.6770833,1.3
-1.2542,44.5939833,1.3
-1.2192167,44.70425,8.4
-1.1998833,44.6649833,8.9
-1.1133667,44.7144,-2.5
-1.1822667,44.7218,4.9
-1.0662667,44.6543667,-2.3
-1.2190667,44.6927833,-0.2
-1.1868333,44.6653,6.9
-1.1982,44.6662833,9.4
-1.1283,44.6573833,-2.5
-1.0746167,44.6868167,0.3
-1.1611333,44.6878667,-2.4
-1.0781333,44.6711333,1.5
-1.207,44.6765,6.1
-1.1393167,44.70345,-0.4
-1.1682333,44.7146833,1.1
-1.1607167,44.7367667,-0.6
-1.1723333,44.7248167,7.7
-1.1747667,44.6700833,12.5
-1.2074667,44.6651167,5.3
-1.1227,44.7059833,-0.5
-1.0837833,44.65805,2.2
-1.0550833,44.6772,-2.1
-1.2267833,44.63155,5.3
-1.1709833,44.6733833,6
-1.1089167,44.6637833,0.8
-1.06635,44.6472333,-3.9
-1.2253333,44.6305333,3.4
-1.1610167,44.6832667,-1.6
-1.1954,44.66925,6.4
-1.21865,44.6592333,-1.7
-1.1282167,44.6492833,-2.9
-1.0758,44.6826,-2.3
-1.23965,44.60595,4.8
-1.2269,44.6847,6.8
-1.1275667,44.70955,-1.6
-1.22485,44.6070167,8
-1.17325,44.7085833,-1.5
-1.1307,44.7066833,2
-1.0555333,44.65575,-0.4
-1.1756667,44.6695667,11.9
-1.0991,44.69795,-2.4
-1.0796833,44.6654,0.3
-1.1488167,44.6676167,8.4
-1.1415167,44.73035,-1.8
-1.1609833,44.6808667,-0.6
-1.1467833,44.73125,2.9
-1.0883667,44.6594333,2.9
-1.2020833,44.7059833,-1.5
-1.1864333,44.7182667,2.4
-1.2063,44.6778833,4.7
-1.0605667,44.6867333,-2.6
-1.1217,44.6867167,4.1
-1.0894,44.6837833,4.4
-1.22715,44.6577667,1.7
-1.1973333,44.7112,3
-1.0465,44.6601167,-1.3
-1.1657167,44.7215167,-1.8
-1.2337667,44.6784833,4.7
-1.1270167,44.6508167,-2.7
-1.1618167,44.7093667,-0.3
-1.0776667,44.6807833,-2.5
-1.1274333,44.6628667,4.8
-1.0766167,44.6891333,2.9
-1.2423,44.6054167,5.2
-1.2203667,44.6527167,7.7
-1.2426167,44.6400333,-2.7
-1.1287667,44.6843667,-2
-1.1625333,44.6747333,3.8
-1.22605,44.6258,-0
-1.1770333,44.7429333,-2.6
-1.08785,44.7045333,-2.3
-1.2141,44.6611167,-1
-1.2436167,44.6117,6.1
-1.12645,44.7402167,-2
-1.2127667,44.6157167,8.3
-1.2199167,44.6198333,4.4
-1.1253,44.67945,1.9
-1.1866333,44.67175,5
-1.0991,44.72545,0.4
-1.1535,44.6677,7.6
-1.02675,44.6695833,-2.7
-1.0337,44.64925,-1.6
-1.2414333,44.64365,-2.5
-1.1956833,44.6557833,-1.9
-1.2165833,44.69105,-1.2
-1.1403667,44.6763667,-1.7
-1.2213833,44.6735833,1.9
-1.1353167,44.75255,-2.7
-1.12725,44.6904333,5.8
-1.1020667,44.6740833,-1.9
-1.2079333,44.6151833,14.8
-1.1280667,44.6634667,5.7
-1.2288167,44.6688333,0.4
-1.1430667,44.7201333,-1.8
-1.1122,44.6695333,2.3
-1.2342833,44.6038667,0.5
-1.2385333,44.6247167,8.4
-1.1340667,44.7051167,3.2
-1.0697167,44.6519667,-2.3
-1.2546833,44.5926667,0.7
-1.16315,44.7502833,-1.1
-1.12275,44.7384667,-2.1
-1.1357167,44.7017667,6.7
-1.2328,44.6184167,7.9
-1.2172167,44.6662,2.7
-1.1508167,44.6804333,7.9
-1.2377333,44.60535,0.6
-1.07675,44.6984833,1.7
-1.2027333,44.7082167,3.9
-1.0998833,44.7122833,-0.9
-1.2328,44.6231667,12.3
-1.10215,44.7133167,5.1
-1.2338833,44.58985,3.9
-1.2114,44.6739667,3.3
-1.1245833,44.69145,-1.8
-1.0934667,44.6810167,3.9
-1.2414167,44.64075,-2.5
-1.2253,44.6576167,3.3
-1.1937,44.6729167,3.5
-1.1663833,44.7168333,-1.5
-1.2414,44.6108833,3.7
-1.0470833,44.6784333,-2.1
-1.15145,44.72805,4.8
-1.1585333,44.6931167,-2.4
-1.1064167,44.6685667,2.3
-1.1155,44.7052667,-1.3
-1.1780167,44.6722167,7.1
-1.2086833,44.6793,-1.8
-1.2480333,44.5804167,8.2
-1.1520667,44.7088333,4
-1.1289,44.6750167,10.8
-1.1214167,44.6793167,4.6
-1.20165,44.65655,0.1
-1.15065,44.7047833,-0.8
-1.0895167,44.6489,-2.5
-1.1918,44.6728333,2.9
-1.2238333,44.65485,0.5
-1.0433667,44.66485,-2.5
-1.1723,44.6743333,0.9
-1.2283833,44.6246167,1.4
-1.13975,44.66785,1.7
-1.2235167,44.6334667,2
-1.1861667,44.7177833,3
-1.14475,44.6938,-2
-1.2331833,44.6317833,15.3
-1.1623833,44.71315,0.3
-1.1154,44.71435,-2.1
-1.0628833,44.682,0.8
-1.10655,44.7019667,-1.8
-1.1413333,44.67375,8.2
-1.1164167,44.7221167,-0.7
-1.24555,44.5946667,0.9
-1.1040833,44.6684333,3.3
-1.1642167,44.7120167,4.2
-1.0598,44.6591,-2
-1.1487667,44.7504,2.1
-1.2507333,44.6126667,2.2
-1.2277167,44.6520667,8.4
-1.0985167,44.7059,-2.2
-1.2117,44.6419667,4.2
-1.2278,44.6048,-1.1
-1.2505167,44.6048333,3.7
-1.1446,44.6696833,5.7
-1.17875,44.7328167,-2.1
-1.09515,44.7199333,-1.6
-1.07215,44.6689333,2.1
-1.2152833,44.64485,-0
-1.2028333,44.6759167,3.9
-1.08595,44.6518167,-2.1
-1.1577833,44.67465,2.3
-1.2266833,44.6668667,-0
-1.2234167,44.6178333,4.9
-1.1056333,44.72555,-1.9
-1.1788,44.7405,-2.3
-1.25015,44.6200833,-0.4
-1.1953167,44.6575,-0.1
-1.2125333,44.6091333,17.4
-1.2227833,44.6875667,5.8
-1.0368167,44.6502667,-3
-1.196,44.7148333,10.8
-1.0972167,44.7149667,-2.1
-1.1022833,44.6802833,3.6
-1.23105,44.6203667,12.8
-1.0966167,44.69075,4.3
-1.1651333,44.7134333,3.3
-1.1516167,44.6815,1.8
-1.2200333,44.6066167,6.7
-1.0473333,44.66695,-2.3
-1.24155,44.6157667,4.3
-1.2282667,44.614,8.1
-1.2221667,44.62585,3.3
-1.2246833,44.5954833,16.9
-1.1646333,44.7334333,-2.3
-1.2152,44.6205833,4.5
-1.23585,44.6278833,11.5
-1.24425,44.5855667,14
-1.0662667,44.6493,-2.5
-1.1615,44.6685167,19.8
-1.166,44.6697333,6.6
-1.2383,44.5929167,6
-1.1505,44.7406333,2.8
-1.1137667,44.73725,-2.1
-1.2123167,44.6249833,2.4
-1.0889333,44.7165,-2.1
-1.2350667,44.6357,10.5
-1.0995167,44.6917833,-2.3
-1.1929667,44.664,8.3
-1.2228167,44.6016167,6.3
-1.15945,44.6780167,-1.9
-1.1310833,44.7119833,0.5
-1.1516833,44.72915,-1.7
-1.2459,44.60715,2.8
-1.1991167,44.7196333,-0.9
-1.1136833,44.6819,-1.6
-1.2304167,44.6864667,5.3
-1.1429833,44.7008333,4.1
-1.2158833,44.6183833,7.7
-1.2368667,44.6755333,-1.7
-1.0641833,44.6763833,-0.4
-1.2141333,44.6168833,7
-1.20045,44.7102333,1.6
-1.09615,44.7182833,-2.2
-1.1698667,44.67065,12.5
-1.2315167,44.6696833,6.8
-1.1263,44.6703833,-2.1
-1.2049333,44.7109,2
-1.10925,44.7097667,-0.7
-1.2130333,44.6269333,0.2
-1.21185,44.6399167,7.2
-1.1374,44.7399667,-2
-1.1731333,44.6687333,16.3
-1.0957833,44.6836333,3.5
-1.1203667,44.6830167,2.8
-1.0667667,44.6784833,2.1
-1.2335833,44.61995,9.9
-1.1081167,44.7182333,-2.1
-1.2286167,44.6240167,3.6
-1.1532667,44.72835,2.7
-1.0899333,44.6921167,-1.9
-1.23435,44.6374833,15
-1.1639667,44.66655,13.5
-1.2369,44.5971833,2.4
-1.08535,44.7080833,-2.2
-1.0570833,44.6756333,0.3
-1.18105,44.6753833,1.7
-1.2014,44.6479667,-0.7
-1.2254833,44.6096833,7.7
-1.1503,44.6839167,8.2
-1.2262,44.6274667,1.1
-1.2377167,44.5995667,0.9
-1.1892167,44.7101333,-1.7
-1.21165,44.6644,-1.4
-1.14385,44.6984,4.8
-1.0717667,44.6635333,-2.1
-1.1347,44.7069,-0.6
-1.1169333,44.6615333,-1.4
-1.1194667,44.7197167,-2.2
-1.2490667,44.5999667,1.3
-1.1168167,44.7262,4.1
-1.2355333,44.6383667,4.4
-1.0759667,44.6579,0.9
-1.1531167,44.66565,6.6
-1.2254667,44.66665,-0.4
-1.2330167,44.58185,-0.6
-1.2247833,44.61155,9.7
-1.0863667,44.6858333,-1.4
-1.1649167,44.73395,-2.2
-1.0587667,44.6613,0.3
-1.0736,44.6683333,0.3
-1.1326667,44.6972333,3.3
-1.1882667,44.6674667,9.2
-1.2317333,44.6585333,16.3
-1.1567167,44.6694667,16.1
-1.23855,44.5861333,8.9
-1.0618833,44.6560833,0.3
-1.2046667,44.6689667,4.3
-1.2209833,44.6801167,4.6
-1.094,44.7239833,-2.3
-1.2221333,44.6600667,6.1
-1.1105833,44.6626333,2.3
-1.162,44.7448833,0.1
-1.2228333,44.6334333,2.9
-1.2360333,44.5865833,8.3
-1.0894333,44.6798833,-0.7
-1.1299833,44.7136167,2.7
-1.1543167,44.6890833,9.9
-1.1791833,44.6715833,7.9
-1.2092833,44.6360833,12.2
-1.2362833,44.5817333,7.7
-1.1816167,44.6688333,13.3
-1.1198833,44.6630667,2.1
-1.2196167,44.6425333,-1.1
-1.1521,44.6918667,0.4
-1.1138,44.7216667,2.9
-1.08385,44.6891833,3.7
-1.17775,44.66805,14.3
-1.1617833,44.7046,-0.8
-1.1167333,44.7278667,-2.4
-1.1192,44.6678,1.3
-1.2280333,44.6837333,3.9
-1.0322833,44.65735,-1.7
-1.2118167,44.64445,3
-1.23345,44.64375,9.9
-1.2222333,44.69775,7.3
-1.1535,44.67445,4.7
-1.2358,44.6045167,-0.4
-1.1833167,44.71155,-1.7
-1.1710833,44.7354667,-2
-1.1334333,44.7037167,5.3
-1.22815,44.62325,2.4
-1.1768667,44.6661833,11.1
-1.20805,44.6598833,9.4
-1.0937667,44.6844333,2.4
-1.1912333,44.6766,2.2
-1.1583667,44.7032833,-0.2
-1.1588667,44.7364167,4.8
-1.0613833,44.6720833,-2.1
-1.1592167,44.7332167,-0.9
-1.0993667,44.7257333,-0.3
-1.08995,44.6670833,-2.1
-1.1444667,44.6592167,-1.7
-1.0727667,44.6910833,-1.4
-1.1507333,44.6850333,6.6
-1.1856833,44.70855,-3
-1.07485,44.6487667,-2.5
-1.16535,44.7080167,7.7
-1.1998833,44.7163833,8.5
-1.06485,44.6660333,1
-1.1299833,44.712,6.7
-1.1777333,44.7533333,-0.2
-1.1251167,44.68155,-2.1
-1.1534667,44.6889667,2
-1.19235,44.7159667,8.2
-1.2059833,44.646,4.9
-1.2246667,44.68575,6.6
-1.1115167,44.68955,-2.3
-1.20835,44.6106,9.3
-1.1886167,44.7089667,-2.5
-1.2202833,44.7051833,6.5
-1.0694833,44.66695,-0.7
-1.1260667,44.6901667,4.3
-1.12695,44.6523667,-2.5
-1.23625,44.5823,9.9
-1.2084833,44.6772667,4.4
-1.1982,44.66905,5.4
-1.07525,44.6606333,-1.9
-1.2352333,44.6273667,12.8
-1.2347667,44.6241167,13.3
-1.2304667,44.5860333,16.6
-1.2346667,44.6414833,10
-1.22255,44.6697333,-1.2
-1.188,44.7293,-1.3
-1.129,44.6941833,5.7
-1.2272167,44.60175,4.1
-1.23365,44.6224667,11.7
-1.1637833,44.7588,-2
-1.119,44.6966667,-1
-1.1495,44.74605,2.1
-1.0964667,44.6937833,4.1
-1.2226333,44.6310667,2.5
-1.1240167,44.6662167,3.1
-1.1559167,44.6715833,10.2
-1.2045333,44.67695,6.3
-1.2235833,44.7023167,2.4
-1.1099833,44.7076833,-0.7
-1.2413833,44.5757333,-2.4
-1.0797667,44.67835,-2.5
-1.2373,44.5967,1.5
-1.0742,44.6885667,3.3
-1.0997833,44.6639833,-1.7
-1.0903167,44.7134833,-2
-1.1575167,44.6676,17.1
-1.1875667,44.6695833,10.5
-1.1744167,44.66525,-1.1
-1.1921167,44.6775,4.1
-1.1374,44.6613167,4.2
-1.1364,44.6968333,-1.3
-1.1250333,44.7304,-2.1
-1.1229167,44.6685833,-2.2
-1.1589833,44.6695,18
-1.1213167,44.6859333,4.1
-1.2371,44.64415,0.3
-1.1645333,44.6726167,5.2
-1.23305,44.6746333,4.1
-1.2422,44.6381333,-1.7
-1.2248833,44.68205,6.3
-1.1311833,44.74665,-2.2
-1.1693167,44.7115333,5.1
-1.1815667,44.6740667,7.1
-1.1900667,44.6715667,5.6
-1.2190667,44.6769,0.3
-1.1219833,44.72995,2.1
-1.1517333,44.6861833,5.8
-1.2184667,44.6310833,-0.8
-1.06955,44.6652667,-2
-1.1067667,44.66895,3.1
-1.09065,44.67835,2.1
-1.1149167,44.7206667,2.9
-1.0930333,44.6790333,2.4
-1.1094167,44.7009333,-1.7
-1.0900167,44.6792,1.3
-1.22425,44.6240667,0.8
-1.1693667,44.6734333,6.3
-1.2221667,44.6220167,0.6
-1.17975,44.7356,-1.9
-1.1355,44.7249,-1.7
-1.16125,44.69045,-2.2
-1.1105333,44.6651833,-2.2
-1.0983167,44.6798,6
-1.0357,44.6545833,-1.6
-1.0688333,44.6763833,-2.3
-1.1408333,44.6867167,-2
-1.2164667,44.63225,0.3
-1.2224333,44.6242,0.8
-1.0947167,44.6790333,1.8
-1.1407167,44.6929167,-2.3
-1.19145,44.6673333,10.2
-1.0927167,44.6775,1.8
-1.151,44.7246167,-1.3
-1.1884333,44.6702833,8.5
-1.1924333,44.7070167,-2.5
-1.1151333,44.7329167,-2.2
-1.1311333,44.6517,-2.5
-1.1722667,44.7176333,-1.5
-1.2153833,44.6788833,-0.7
-1.1059667,44.6698667,3.5
-1.1439833,44.6907333,-2.1
-1.12935,44.6499,-2.7
-1.2424,44.61005,4.9
-1.0590667,44.6830167,-1.7
-1.1466833,44.7022,4.2
-1.1372333,44.68925,-1.7
-1.2197167,44.6329,1.3
-1.0639667,44.6641167,-1.5
-1.1167167,44.72105,2.3
-1.1580333,44.73325,-2
-1.0423,44.6559,-2.1
-1.12165,44.6740333,5.7
-1.2177,44.6128833,9.6
-1.1510333,44.6707833,7.9
-1.0842833,44.6639,-2.4
-1.0715,44.6764333,-2.3
-1.1724,44.7182667,-1.5
-1.1435833,44.6821667,-2.3
-1.2132333,44.6821,-1.9
-1.21745,44.6304833,0.3
-1.2235333,44.6215,6.2
-1.0840667,44.6767167,1.8
-1.10605,44.6998667,-1.8
-1.1114,44.6578167,-2.1
-1.1609833,44.6848667,-1.9
-1.2402833,44.6110167,4.7
-1.1341667,44.7315833,-1.7
-1.0359833,44.6652667,-2.1
-1.133,44.7112,-2.2
-1.1797667,44.7171333,-0.9
-1.1567333,44.7229667,-1.8
-1.0762,44.6719167,0.9
-1.24525,44.6136333,1.5
-1.1020833,44.6639167,1.3
-1.08065,44.665,-2.5
-1.13075,44.6533167,-2.5
-1.0743,44.6842,-1.9
-1.1207667,44.71925,2.5
-1.0602333,44.6574,-2.1
-1.1997,44.6563,-0.9
-1.08205,44.6788333,-1.7
-1.1724167,44.74325,-1.1
-1.2245333,44.6354,1.7
-1.15405,44.73715,2.1
-1.0857667,44.6856833,-0.7
-1.1408833,44.6936667,-2.4
-1.1604,44.71255,-0.9
-1.1504833,44.7390333,-1
-1.1206333,44.7115167,-2.2
-1.1687,44.6718167,6.9
-1.0242667,44.6665167,-2.8
-1.0803833,44.6635667,-2.3
-1.1532667,44.7268167,-0.5
-1.1506,44.7129333,-2.2
-1.1505833,44.6797833,7.7
-1.0935,44.6835833,-0.5
-1.09145,44.6622833,2.2
-1.08,44.6643667,-2.3
-1.14785,44.7093167,-1.1
-1.154,44.7119,-1.9
-1.1028167,44.6642333,1.9
-1.2274667,44.6270833,4.3
-1.1803333,44.7290167,-1.9
-1.0829667,44.6749667,1.6
-1.1147167,44.7343333,-2.3
-1.1421333,44.7257167,-1.9
-1.1091333,44.6705333,3.2
-1.1468167,44.7331,3.1
-1.0450833,44.6585167,-0.8
-1.1694167,44.6713167,6.2
-1.1420333,44.7111,-1.7
-1.0812667,44.67605,1.3
-1.0951833,44.6541667,-2.5
-1.0901667,44.65835,-1.8
-1.16215,44.7456,-1.7
-1.1007333,44.6837167,-1.2
-1.1744,44.7511333,-2.4
-1.1238667,44.6543167,-2.7
-1.1434167,44.6912333,-2.1
-1.1006667,44.6843667,-1.3
-1.1455,44.68665,-2.4
-1.2216,44.6756,3.7
-1.1434833,44.6861,-2.1
-1.14825,44.71375,-2.2
-1.1668333,44.6665,5.8
-1.0819667,44.6551333,-1.7
-1.2,44.6771167,5.2
-1.04185,44.6744,-1.7
-1.1436333,44.6899167,-2.1
-1.0919833,44.6784,1.5
-1.15395,44.7114,-1.8
-1.1056333,44.66895,3.4
-1.1437667,44.6707333,6.8
-1.1285167,44.6986333,-1.2
-1.2408333,44.6103333,5
-1.0843667,44.6762667,2
-1.1465667,44.66445,4.7
-1.203,44.6637,8.6
-1.1435167,44.68055,-2.1
-1.1482333,44.7121167,-2.1
-1.1398167,44.6591833,-2.1
-1.1396167,44.7023167,-1
-1.1452,44.6898833,-2.2
-1.08315,44.6862,-0.7
-1.1805,44.6779333,-1.5
-1.1201833,44.6554167,-2.4
-1.0766667,44.67155,1.1
-1.1481333,44.72725,-1.8
-1.1285333,44.6553,-2.7
-1.1453833,44.68855,-2.4
-1.2159667,44.6791833,-0.9
-1.14465,44.6969833,2.4
-1.1425667,44.72415,-1.8
-1.1408667,44.7031333,-1
-1.2153667,44.6774667,-1.5
-1.1389667,44.6636833,3.5
-1.0995833,44.71555,-1.9
-1.1613833,44.6941833,-2.3
-1.1183667,44.7191833,-1.9
-1.1428167,44.6741167,7.5
-1.1854833,44.72315,0.4
-1.0848667,44.6756167,-2.5
-1.1374333,44.7144,-1.4
-1.1001667,44.67695,4.8
-1.1762667,44.672,7.3
-1.1477333,44.6680333,8
-1.1141,44.6790833,4.3
-1.15745,44.7259833,-1.4
-1.1813333,44.7198333,5.9
-1.2400833,44.60815,5.3
-1.1197167,44.7012833,-1.5
-1.1950833,44.6652167,8.9
-1.1085,44.6617333,-1.5
-1.0543333,44.6662167,-2.1
-1.0966667,44.6723667,-2.1
-1.1391667,44.6578167,-1.5
-1.2030167,44.6589333,7.9
-1.1033333,44.6719667,-2.5
-1.0879,44.6694,-2.2
-1.1495,44.6772833,4.9
-1.2410833,44.6119,5
-1.1584667,44.7373167,-0.6
-1.0904167,44.71975,-2.3
-1.1700333,44.7325167,-1.4
-1.2156167,44.6133833,10.2
-1.0682833,44.6796167,-2.1
-1.0851333,44.6824333,-2.1
-1.0713833,44.6881333,-1.2
-1.1790167,44.7158167,-0.9
-1.2386833,44.6014667,1.5
-1.0844,44.6529333,-1.9
-1.1385333,44.6648,4.8
-1.0791667,44.6735,2.3
-1.0807833,44.65055,-1.7
-1.1659667,44.7373,-2.5
-1.2321333,44.6743333,3.2
-1.1133833,44.7222167,3.1
-1.128,44.7193333,-2.2
-1.1207167,44.6696167,-1.7
-1.2230333,44.6391167,-0.2
-1.2435167,44.63675,-2.8
-1.2372,44.59615,5.4
-1.0508167,44.6727667,-2.2
-1.1580667,44.70825,-0.5
-1.115,44.6606167,-2
-1.1465833,44.67695,-0.9
-1.1434833,44.6845667,-2.5
-1.09365,44.6641667,2.7
-1.1410833,44.65875,-2.2
-1.2423333,44.6359,-2.6
-1.1081333,44.7120167,3.1
-1.24975,44.5941333,1.4
-1.1088833,44.6612333,-2.1
-1.0823333,44.6853167,2.2
-1.1317667,44.7175,-2.2
-1.2022167,44.6634167,8.5
-1.1041333,44.6643833,1.6
-1.1349833,44.705,2.8
-1.1083,44.6704167,3
-1.0225833,44.6683333,-3
-1.0210833,44.6706333,-2.3
-1.1058167,44.7221833,-1.3
-1.21215,44.6791333,-1.4
-1.1989333,44.6561667,-0.8
-1.1606333,44.7305833,2.9
-1.1575,44.7362833,2.1
-1.2271333,44.6538833,2.4
-1.1799,44.6729,6.5
-1.1546167,44.6761833,1
-1.2440333,44.6143667,2.4
-1.1424167,44.6922667,-2.1
-1.0962,44.6728,-1.7
-1.13645,44.7186833,-1.7
-1.0948167,44.6642667,2.2
-1.1148667,44.66385,2.3
-1.0877,44.6917833,-2.2
-1.1195333,44.6842833,3.2
-1.0575333,44.6626333,-1.2
-1.1949667,44.7068833,-2.6
-1.1613333,44.7224,-2
-1.1460167,44.6990167,5.3
-1.2100333,44.6727167,-1.9
-1.1578833,44.7288667,3.9
-1.0909667,44.6779167,1.3
-1.0454667,44.6615,-0.9
-1.1435,44.6624667,5.3
-1.1102333,44.7212,-1.7
-1.0743167,44.6968833,-2.2
-1.0929167,44.68415,-0.9
-1.2511667,44.5921667,1.5
-1.2415333,44.6330333,-3.1
-1.08715,44.6729,-2.4
-1.1186,44.7182333,2.5
-1.1613,44.6967333,-2.2
-1.1566667,44.67285,2.5
-1.0791333,44.6632167,-2.4
-1.1061167,44.6597333,-2.4
-1.22795,44.6122167,6.6
-1.0910667,44.68435,-0.7
-1.1546333,44.6681,9.1
-1.0788167,44.6694,-2.4
-1.1624833,44.6778167,-1.7
-1.07955,44.6747833,1.7
-1.1168167,44.72,2.6
-1.0705333,44.6884,-1.3
-1.2164833,44.6778667,-1.5
-1.0920333,44.6541167,-2.1
-1.2435167,44.6087167,4.2
-1.1049833,44.6687333,2.6
-1.0953333,44.7132,2.7
-1.1825167,44.6779833,-1.5
-1.10475,44.6615833,-2.1
-1.22845,44.68765,8
-1.1145167,44.7218,1.7
-1.17895,44.67845,-1.7
-1.0915,44.6571667,-1.8
-1.1308333,44.6541833,-2.3
-1.1448167,44.6838833,-2.3
-1.1086,44.6709167,1.6
-1.0949,44.6813,4.5
-1.1990167,44.70635,-2.2
-1.0693833,44.6839833,3.3
-1.2284,44.59495,4.1
-1.1329667,44.66275,5.7
-1.151,44.7234167,-1.7
-1.2411167,44.5988333,3.3
-1.1713,44.7542167,-2.4
-1.1319833,44.6945667,4.5
-1.1504333,44.7091833,-1.1
-1.1289833,44.69215,5.1
-1.0818667,44.6831333,-2.3
-1.0931,44.6554833,-2.2
-1.1198,44.6851,2.8
-1.04165,44.6570667,-2.3
-1.1435,44.6868,-2.1
-1.1936333,44.66245,10.1
-1.08945,44.6927667,-1.9
-1.2248833,44.6214,6.3
-1.14355,44.6815333,-2.5
-1.1454,44.6874,-2.2
-1.0714,44.6736667,-2.3
-1.0928167,44.6881833,2.6
-1.1306833,44.6500167,-2.7
-1.0845833,44.6849,3.3
-1.0858667,44.6864667,-1.7
-1.21185,44.6743,3.3
-1.0249833,44.6707333,-2.7
-1.2111833,44.6605667,10.9
-1.1323167,44.7143667,-1.1
-1.1321833,44.71565,-2.1
-1.2097,44.6734,-1.9
-1.2345333,44.66525,7
-1.07585,44.6709333,0.9
-1.1241667,44.72125,-2.1
-1.1510167,44.7238667,-1.3
-1.021,44.6700833,-2.6
-1.1315667,44.6496667,-2.7
-1.0924167,44.6732333,-2.3
-1.12135,44.70985,3.4
-1.1078667,44.7112833,2.6
-1.1902667,44.6668833,9.8
-1.1949833,44.6762667,4.3
-1.0743833,44.6709667,1.3
-1.2138,44.6670333,3.9
-1.10875,44.7112833,3.1
-1.0245,44.67125,-2.3
-1.09675,44.6890667,2.8
-1.1090667,44.6994333,-1.9
-1.0772,44.6885,3
-1.0960833,44.6911667,3.7
-1.1482833,44.664,3.5
-1.1442667,44.66915,6.7
-1.1260833,44.7033167,-0.7
-1.0983833,44.7146667,-1.3
-1.1556167,44.7088667,4.7
-1.1059667,44.7145667,-2.2
-1.2307833,44.6197333,9.3
-1.10125,44.6686167,1.7
-1.1610833,44.7472667,-1.6
-1.1724167,44.7389,-2
-1.1285833,44.6545333,-2.7
-1.09685,44.6901167,3.8
-1.12145,44.7091,4.5
-1.21125,44.70545,4.5
-1.1495667,44.66555,7.6
-1.2147,44.6784,-0.6
-1.1931333,44.6747333,1.5
-1.11715,44.7092,4.5
-1.0421667,44.6564833,-2.3
-1.1187333,44.7047667,-1.6
-1.1288667,44.73055,-1.7
-1.1161667,44.7208667,2.7
-1.1639167,44.7539,-1.5
-1.1458,44.6837833,-2.1
-1.25295,44.5940667,1.3
-1.0911833,44.71225,2.3
-1.0937167,44.7168333,-2.3
-1.15465,44.7145333,-1.9
-1.1451,44.7039833,-1.1
-1.1623167,44.75215,-0.3
-1.1221,44.6535167,-2.4
-1.1121,44.652,-2.6
-1.1436,44.6839333,-2.5
-1.2157167,44.6270667,-0.3
-1.14415,44.6717167,6.9
-1.02685,44.6633,-2.8
-1.2021333,44.66795,4.9
-1.2240833,44.6207667,6.4
-1.1441167,44.7116167,-2
-1.0994333,44.6517,-2.5
-1.1360167,44.69795,-0.7
-1.13825,44.6906333,-2.1
-1.1682667,44.7463833,-2.2
-1.0832,44.6624833,-2.3
-1.0731,44.6720167,-2.1
-1.1509,44.7205667,-1.9
-1.1532333,44.70815,4.5
-1.0390667,44.6607667,-1.4
-1.1586667,44.6903833,-2.2
-1.2479833,44.6140333,1.9
-1.16965,44.6718,7.1
-1.0371167,44.6692333,-1.6
-1.0248,44.6657333,-2.8
-1.2015667,44.6801833,-1.1
-1.1509333,44.7198,-2.1
-1.2032833,44.6617333,8.6
-1.2419833,44.5994833,3.4
-1.2178333,44.6157167,8.1
-1.1097833,44.6701333,3.8
-1.1173667,44.7193,2.5
-1.2142,44.6653167,3.7
-1.14935,44.6725667,6.5
-1.1224667,44.72795,-1.3
-1.1342,44.6859167,-2.3
-1.2267333,44.6083,-0.9
-1.1408333,44.6582333,-1.7
-1.2029833,44.6811833,-1.4
-1.1225833,44.6584833,-2.2
-1.1475,44.6695833,7.1
-1.0895167,44.6564667,-1.9
-1.14615,44.6699333,6.6
-1.1852833,44.7227167,0.4
-1.14815,44.7165667,-2.1
-1.0955167,44.6897833,2.4
-1.1382833,44.6636667,2.4
-1.0840167,44.6535,-1.9
-1.1403167,44.6704667,5.5
-1.07735,44.6744833,-1.4
-1.1283667,44.7176167,-2.2
-1.2509,44.595,1.1
-1.1536333,44.7378,2.1
-1.2033667,44.6745833,-0.2
-1.1033167,44.6635,1.6
-1.13735,44.6499167,-2.5
-1.1322833,44.7148167,-2.1
-1.2296667,44.6719167,-0.3
-1.1214167,44.6848667,4
-1.1249667,44.68595,-1.7
-1.2327,44.6279833,13.7
-1.1581167,44.7308167,-1.8
-1.2171,44.6817833,-1.4
-1.1982333,44.6731,-0.5
-1.0976,44.6775333,5
-1.13825,44.6889333,-1.9
-1.1506833,44.7141333,-2.1
-1.1510667,44.70815,4.5
-1.07615,44.6659667,-2.4
-1.1524667,44.7055833,-0.8
-1.1420167,44.72625,-2
-1.0694,44.6858333,2.3
-1.0934,44.7109833,-2.1
-1.17965,44.67225,7
-1.1418167,44.7121333,-1.9
-1.1457,44.6666833,4.9
-1.1303333,44.65755,-2.6
-1.2034833,44.7198667,-2.3
-1.1482667,44.7146667,-2.2
-1.0890667,44.6708167,-2.3
-1.02355,44.67245,-2.5
-1.2013333,44.6735333,-0.2
-1.1115,44.6633833,2.9
-1.1812833,44.6678,13.1
-1.2451167,44.6087,4.7
-1.2161,44.6758333,-0.5
-1.1389333,44.69025,-1.7
-1.2500667,44.6036833,2.5
-1.1100333,44.6657167,-2.2
-1.2192833,44.6746167,-0.1
-1.1097167,44.7026667,-1.5
-1.2072333,44.6735,-2
-1.1505,44.7096333,-1.6
-1.1192,44.7161833,3.3
-1.1893667,44.6679,9.2
-1.1435167,44.6907,-2.1
-1.1285,44.7061,4.4
-1.1616333,44.7018167,-1.7
-1.1823833,44.7589833,-3.1
-1.2186,44.62995,0.4
-1.0550167,44.6652333,-2.1
-1.2249333,44.6948833,7.9
-1.1644333,44.75705,-2.7
-1.0935167,44.6881833,2.8
-1.1946333,44.67005,5.9
-1.1834333,44.7355833,-1.8
-1.11435,44.6611333,-1.9
-1.1514833,44.7372333,2.3
-1.0935167,44.723,-2.3
-1.0778333,44.69215,-2.4
-1.0973,44.6812333,6
-1.2359,44.6023833,1.1
-1.0758333,44.6545667,-2.2
-1.22185,44.6024,5.2
-1.0594833,44.6674667,-2.5
-1.1241333,44.6569667,-2.2
-1.14105,44.6728167,7.3
-1.1684667,44.6723,6.5
-1.1661833,44.6778167,-1.7
-1.0988167,44.6758,-1.1
-1.1352833,44.6628333,3.7
-1.1262833,44.6767167,6.4
-1.0895,44.6785333,2.2
-1.0817,44.7003833,-2.2
-1.2207,44.6162667,6.5
-1.2276833,44.6685667,1.8
-1.1085333,44.6966667,-1.5
-1.1220667,44.6856833,4
-1.1555167,44.7257,-1.6
-1.1483167,44.6666,5.6
-1.0967667,44.6922833,3.6
-1.2283667,44.5961667,4.5
-1.16165,44.7429833,-1.8
-1.1464333,44.7493,-2.3
-1.15925,44.7394667,-1.1
-1.0606333,44.6824,0.1
-1.1661333,44.7159667,-0.8
-1.2366167,44.5979833,1.6
-1.24355,44.635,-3.2
-1.1128167,44.6944833,-1.8
-1.2250333,44.6054833,6.1
-1.11355,44.6621833,2.7
-1.0410333,44.6687167,-1.9
-1.0939167,44.6651,2.7
-1.1152167,44.6634,2.5
-1.1602667,44.72815,3.5
-1.2340667,44.59265,4
-1.1159,44.7181333,-1.8
-1.1272833,44.6537833,-2.7
-1.1770167,44.7355167,-2
-1.15435,44.7275,3.3
-1.1312333,44.7193167,-2.1
-1.1042167,44.6885667,-0.7
-1.1267,44.7121833,-1.8
-1.0830167,44.6538,-0.2
-1.23555,44.6127333,6.3
-1.2289167,44.6735667,-0.4
-1.0857167,44.6841333,2.3
-1.1316667,44.6636,2.3
-1.1165833,44.66205,1.1
-1.1637,44.7036,-1.7
-1.1463167,44.6737333,6.7
-1.1184167,44.6918333,-1.6
-1.1689333,44.6728833,7.1
-1.2128167,44.7072333,4.1
-1.1442167,44.69985,5.1
-1.1296,44.7015833,-0.1
-1.2304,44.6062333,-1.2
-1.0810833,44.67445,2
-1.1601,44.71795,-1.9
-1.214,44.6275167,-0.1
-1.15445,44.7387667,-2.1
-1.16405,44.75455,-2.7
-1.22095,44.6198833,5.8
-1.0831,44.6529833,-1.8
-1.09685,44.6926167,3.1
-1.148,44.7486667,1.1
-1.1630833,44.7564667,-2.5
-1.1406,44.6633667,4.7
-1.14805,44.7249,-2.1
-1.0939333,44.68295,-0.5
-1.0418167,44.6629167,-1.6
-1.1534667,44.7415833,-2.3
-1.2193167,44.68295,-1.1
-1.1541333,44.71225,-1.9
-1.1165667,44.6508167,-2.5
-1.2378667,44.6017,1.5
-1.0593833,44.6809667,-1.7
-1.0337833,44.67355,-1.6
-1.0734,44.6852667,-1.9
-1.1613,44.7484167,-2.2
-1.0864667,44.6566333,-1.5
-1.0814667,44.7012667,-2.3
-1.1902167,44.6685833,8.5
-1.1450667,44.66535,4.2
-1.1236,44.6655667,4.9
-1.0461667,44.6566,-1.6
-1.0709833,44.67015,-0.6
-1.15055,44.7135333,-2.2
-1.2216667,44.6020167,6.1
-1.14815,44.7183333,-2
-1.1454667,44.6717,6.7
-1.2213,44.6192833,6.4
-1.1308,44.7094,2.4
-1.1606,44.7312167,2.9
-1.21715,44.7071833,5.5
-1.13775,44.6626,5.1
-1.2159,44.654,12.6
-1.14555,44.6858667,-2.2
-1.1471167,44.6759833,-1
-1.2144167,44.6803667,-1.5
-1.2190667,44.6952167,3.2
-1.1383667,44.6579167,-1.7
-1.1203833,44.7132667,-2.5
-1.108,44.7099667,-1.3
-1.0988667,44.7004333,-2.2
-1.0436167,44.6604,-1.4
-1.0968833,44.6758333,-1.5
-1.1985667,44.6788167,-0.5
-1.1220667,44.7153,3.1
-1.2236833,44.6370667,-0.3
-1.1112833,44.6715167,-0.9
-1.0964833,44.6895833,3.8
-1.1043667,44.68915,-1.3
-1.1489667,44.67005,6.1
-1.2526333,44.6057667,2.4
-1.1583333,44.7106167,4.3
-1.1241167,44.6625833,2.9
-1.1633667,44.6756833,-0.1
-1.2280167,44.6732667,0.3
-1.1622,44.7248333,-2
-1.2061,44.6674,4.1
-1.0890333,44.6775333,0.5
-1.0969,44.6787667,4.6
-1.0284833,44.66225,-3
-1.2254167,44.6218667,6.4
-1.1569333,44.7241333,-1.3
-1.1275333,44.7355833,-2
-1.12525,44.67145,-2
-1.1393833,44.6598,-0.1
-1.1451333,44.67125,6.3
-1.1711,44.6682667,16.4
-1.1807333,44.6790333,-1.5
-1.05415,44.65775,-1.9
-1.1237667,44.7359167,-2.4
-1.1545833,44.73765,-2.1
-1.1597167,44.6786,-1.2
-1.1648167,44.6732167,5.9
-1.1462833,44.6639667,4.7
-1.1021333,44.6764667,4.9
-1.1459833,44.6655333,4.5
-1.1297667,44.66045,4.4
-1.1819,44.6658,10.1
-1.2368833,44.6108333,7
-1.2162167,44.6161333,7.6
-1.08295,44.6546667,-0.7
-1.0781667,44.6874667,-0.1
-1.1419833,44.7272,-2.2
-1.1827833,44.6799,-1.5
-1.0870833,44.7116667,-2.1
-1.22375,44.6700833,-0.6
-1.0775333,44.6868,-1.6
-1.1572,44.7381667,-1.7
-1.1650833,44.7117333,3.8
